-27.339924 3.680166 -7.142307 
-27.339924 3.972161 -7.416018 
-26.943693 3.972161 -7.517312 
-6.735923 3.826172 -7.142307 
-6.735923 3.972161 -7.246041 
-6.684626 3.972161 -7.142307 
-4.991795 3.972161 -7.142307 
9.509539 3.972161 -7.436797 
9.905769 3.694057 -7.142307 
9.638616 3.972161 -7.142307 
11.886923 3.949898 -7.142307 
11.866634 3.972161 -7.142307 
-37.245693 4.097971 -7.142307 
-37.364491 4.369377 -7.142307 
-35.660770 4.369377 -7.358387 
-35.628994 4.369377 -7.142307 
-35.264538 4.074947 -7.142307 
-33.679615 4.127816 -7.142307 
-33.415947 4.369377 -7.142307 
-28.924847 4.307388 -7.142307 
-28.924847 4.369377 -7.176230 
-29.021601 4.369377 -7.142307 
-28.528616 4.173000 -7.142307 
-28.528616 4.369377 -7.342363 
-28.132385 4.019310 -7.142307 
-28.132385 4.369377 -7.485944 
-27.736155 4.369377 -7.526840 
-6.735923 4.369377 -7.498331 
-6.556105 4.369377 -7.142307 
-4.754769 4.369377 -7.407006 
-4.857435 4.369377 -7.142307 
9.113308 4.369377 -7.454854 
9.509539 4.105745 -7.142307 
9.258320 4.369377 -7.142307 
11.490692 4.364294 -7.142307 
11.485991 4.369377 -7.142307 
-37.453487 4.766593 -7.142307 
-35.660770 4.410166 -7.142307 
-35.866684 4.766593 -7.142307 
-33.283386 4.558966 -7.142307 
-33.164223 4.766593 -7.142307 
-29.321077 4.508185 -7.142307 
-29.321077 4.766593 -7.369211 
-29.603867 4.766593 -7.142307 
-28.924847 4.766593 -7.479567 
-28.528616 4.766593 -7.533168 
-6.407299 4.766593 -7.142307 
-4.754769 4.634737 -7.142307 
-4.692361 4.766593 -7.142307 
8.717077 4.766593 -7.473941 
9.113308 4.519690 -7.142307 
8.877607 4.766593 -7.142307 
11.107416 4.766593 -7.142307 
-37.496296 5.163809 -7.142307 
-35.965057 5.163809 -7.142307 
-33.072552 5.163809 -7.142307 
-29.717308 4.953731 -7.142307 
-29.717308 5.163809 -7.234405 
-29.862267 5.163809 -7.142307 
-29.321077 5.163809 -7.525135 
-6.339692 5.163809 -7.470309 
-6.339692 4.909502 -7.142307 
-6.236506 5.163809 -7.142307 
-4.358539 5.163809 -7.530537 
-4.519688 5.163809 -7.142307 
8.320847 5.163809 -7.487627 
8.717077 4.931157 -7.142307 
8.497453 5.163809 -7.142307 
11.094461 4.780076 -7.142307 
10.724682 5.163809 -7.142307 
-37.492432 5.561025 -7.142307 
-35.948975 5.561025 -7.142307 
-33.097393 5.561025 -7.142307 
-29.717308 5.561025 -7.223331 
-29.850435 5.561025 -7.142307 
-29.321077 5.561025 -7.510268 
-6.073236 5.561025 -7.142307 
-4.358539 5.537797 -7.142307 
-4.347202 5.561025 -7.142307 
7.924615 5.561025 -7.506743 
8.320847 5.353809 -7.142307 
8.121845 5.561025 -7.142307 
10.698231 5.191361 -7.142307 
10.343167 5.561025 -7.142307 
-37.441376 5.958241 -7.142307 
-35.814594 5.958241 -7.142307 
-33.222645 5.958241 -7.142307 
-29.717308 5.740045 -7.142307 
-29.582272 5.958241 -7.142307 
-29.321077 5.958241 -7.337394 
-28.924847 5.958241 -7.434874 
-28.528616 5.958241 -7.497679 
-28.132385 5.958241 -7.530902 
-5.943461 5.958241 -7.309997 
-5.943461 5.835804 -7.142307 
-5.873786 5.958241 -7.142307 
-4.174264 5.958241 -7.142307 
7.528385 5.958241 -7.528078 
7.924615 5.773032 -7.142307 
7.749654 5.958241 -7.142307 
10.302000 5.603828 -7.142307 
9.960917 5.958241 -7.142307 
-37.325523 6.355457 -7.142307 
-35.660770 6.187688 -7.142307 
-35.517658 6.355457 -7.142307 
-33.283386 6.046340 -7.142307 
-33.525520 6.355457 -7.142307 
-29.321077 6.203743 -7.142307 
-28.931652 6.355457 -7.142307 
-28.924847 6.355457 -7.144012 
-28.528616 6.355457 -7.237312 
-28.132385 6.355457 -7.371344 
-27.736155 6.355457 -7.451231 
-27.339924 6.355457 -7.497812 
-26.943693 6.355457 -7.511281 
-26.547462 6.355457 -7.521429 
-26.151230 6.355457 -7.534708 
-5.721079 6.355457 -7.142307 
-3.962308 6.355457 -7.401943 
-4.024783 6.355457 -7.142307 
7.132154 6.355457 -7.537495 
7.528385 6.190464 -7.142307 
7.370506 6.355457 -7.142307 
9.905769 6.015645 -7.142307 
9.579410 6.355457 -7.142307 
-37.245693 6.525433 -7.142307 
-37.125725 6.752674 -7.142307 
-35.264538 6.557570 -7.142307 
-34.868309 6.721304 -7.142307 
-34.605339 6.752674 -7.142307 
-34.075848 6.688933 -7.142307 
-34.389591 6.752674 -7.142307 
-33.679615 6.494478 -7.142307 
-28.924847 6.359141 -7.142307 
-28.528616 6.479824 -7.142307 
-28.132385 6.606626 -7.142307 
-27.736155 6.739985 -7.142307 
-27.696892 6.752674 -7.142307 
-27.339924 6.752674 -7.235798 
-26.943693 6.752674 -7.334334 
-26.547462 6.752674 -7.458802 
-26.151230 6.752674 -7.501448 
-25.754999 6.752674 -7.527854 
-5.563273 6.752674 -7.142307 
-3.962308 6.522389 -7.142307 
-3.865472 6.752674 -7.142307 
6.735923 6.752674 -7.534436 
7.132154 6.591695 -7.142307 
6.975667 6.752674 -7.142307 
9.509539 6.428252 -7.142307 
9.197839 6.752674 -7.142307 
-36.856544 7.149889 -7.142307 
-36.849461 7.149889 -7.373819 
-34.472076 6.770175 -7.142307 
-31.302231 7.084648 -7.142307 
-31.302231 7.149889 -7.183441 
-31.495100 7.149889 -7.142307 
-30.906000 7.105067 -7.142307 
-30.906000 7.149889 -7.166149 
-30.790119 7.149889 -7.142307 
-27.339924 6.906174 -7.142307 
-26.943693 7.002779 -7.142307 
-26.547462 7.089323 -7.142307 
-26.340557 7.149889 -7.142307 
-26.151230 7.149889 -7.196552 
-25.754999 7.149889 -7.323249 
-25.358768 7.149889 -7.403917 
-24.962538 7.149889 -7.478373 
-24.566307 7.149889 -7.513184 
-24.170076 7.149889 -7.529625 
-5.547231 7.149889 -7.502545 
-5.547231 6.789016 -7.142307 
-5.407529 7.149889 -7.142307 
-3.566077 7.149889 -7.491346 
-3.709360 7.149889 -7.142307 
6.735923 6.996352 -7.142307 
6.585106 7.149889 -7.142307 
9.113308 6.840608 -7.142307 
8.816158 7.149889 -7.142307 
-36.849461 7.158645 -7.142307 
-36.474812 7.547106 -7.142307 
-31.698462 7.199734 -7.142307 
-31.698462 7.547106 -7.482993 
-32.037930 7.547106 -7.142307 
-31.302231 7.547106 -7.480897 
-30.906000 7.547106 -7.452047 
-30.509769 7.230688 -7.142307 
-30.509769 7.547106 -7.389826 
-30.113539 7.375132 -7.142307 
-30.113539 7.547106 -7.276970 
-29.732183 7.547106 -7.142307 
-26.151230 7.243235 -7.142307 
-25.754999 7.396863 -7.142307 
-25.358768 7.498170 -7.142307 
-25.079882 7.547106 -7.142307 
-24.962538 7.547106 -7.161444 
-24.566307 7.547106 -7.294151 
-24.170076 7.547106 -7.396539 
-23.773846 7.547106 -7.456339 
-23.377615 7.547106 -7.496794 
-22.981384 7.547106 -7.525716 
-5.254901 7.547106 -7.142307 
-3.566077 7.524762 -7.142307 
-3.556142 7.547106 -7.142307 
6.339692 7.402886 -7.142307 
6.200203 7.547106 -7.142307 
8.717077 7.253117 -7.142307 
8.435713 7.547106 -7.142307 
-36.453232 7.565887 -7.142307 
-36.056999 7.848118 -7.142307 
-35.890423 7.944322 -7.142307 
-32.094692 7.687419 -7.142307 
-32.094692 7.944322 -7.268002 
-32.235558 7.944322 -7.142307 
-30.509769 7.944322 -7.529212 
-30.113539 7.944322 -7.516668 
-29.717308 7.551968 -7.142307 
-29.717308 7.944322 -7.469195 
-29.321077 7.643645 -7.142307 
-29.321077 7.944322 -7.384262 
-28.924847 7.720969 -7.142307 
-28.924847 7.944322 -7.291347 
-28.528616 7.903799 -7.142307 
-28.528616 7.944322 -7.164445 
-28.461983 7.944322 -7.142307 
-24.962538 7.577610 -7.142307 
-24.566307 7.724986 -7.142307 
-24.170076 7.842183 -7.142307 
-23.895145 7.944322 -7.142307 
-23.773846 7.944322 -7.179152 
-23.377615 7.944322 -7.268781 
-22.981384 7.944322 -7.392533 
-22.585154 7.944322 -7.479874 
-22.188923 7.944322 -7.523115 
-21.792692 7.944322 -7.530464 
-21.396461 7.944322 -7.532218 
-5.151000 7.944322 -7.390891 
-5.151000 7.787903 -7.142307 
-5.089387 7.944322 -7.142307 
-3.385811 7.944322 -7.142307 
5.943461 7.817819 -7.142307 
5.822658 7.944322 -7.142307 
8.320847 7.666777 -7.142307 
8.053342 7.944322 -7.142307 
-35.660770 8.056156 -7.142307 
-35.264538 8.193052 -7.142307 
-34.868309 8.258231 -7.142307 
-34.472076 8.294828 -7.142307 
-34.200264 8.341537 -7.142307 
-32.094692 8.341537 -7.174809 
-32.141960 8.341537 -7.142307 
-30.113539 8.341537 -7.533671 
-29.717308 8.341537 -7.532173 
-29.321077 8.341537 -7.527206 
-28.924847 8.341537 -7.507215 
-28.528616 8.341537 -7.499743 
-28.132385 8.046917 -7.142307 
-28.132385 8.341537 -7.424424 
-27.736155 8.150447 -7.142307 
-27.736155 8.341537 -7.294863 
-27.339924 8.242663 -7.142307 
-27.339924 8.341537 -7.199462 
-27.075027 8.341537 -7.142307 
-23.773846 8.015250 -7.142307 
-23.377615 8.123343 -7.142307 
-22.981384 8.212221 -7.142307 
-22.585154 8.338510 -7.142307 
-22.575872 8.341537 -7.142307 
-22.188923 8.341537 -7.257285 
-21.792692 8.341537 -7.359027 
-21.396461 8.341537 -7.456112 
-21.000231 8.341537 -7.506175 
-20.604000 8.341537 -7.526601 
-4.942469 8.341537 -7.142307 
-3.169846 8.341537 -7.329772 
-3.236457 8.341537 -7.142307 
5.547231 8.238297 -7.142307 
5.450018 8.341537 -7.142307 
7.924615 8.078063 -7.142307 
7.671691 8.341537 -7.142307 
-34.075848 8.367904 -7.142307 
-33.679615 8.738754 -7.426099 
-33.679615 8.650060 -7.142307 
-33.591846 8.738754 -7.142307 
-32.094692 8.426629 -7.142307 
-31.989305 8.738754 -7.142307 
-31.698462 8.738754 -7.428106 
-28.132385 8.738754 -7.534036 
-27.736155 8.738754 -7.512188 
-27.339924 8.738754 -7.480303 
-26.943693 8.375838 -7.142307 
-26.943693 8.738754 -7.444664 
-26.547462 8.499101 -7.142307 
-26.547462 8.738754 -7.367349 
-26.151230 8.637157 -7.142307 
-26.151230 8.738754 -7.214084 
-25.880911 8.738754 -7.142307 
-22.188923 8.512294 -7.142307 
-21.792692 8.628358 -7.142307 
-21.396461 8.696789 -7.142307 
-21.249155 8.738754 -7.142307 
-21.000231 8.738754 -7.222615 
-20.604000 8.738754 -7.387463 
-20.207769 8.738754 -7.463893 
-19.811539 8.738754 -7.513818 
-4.757005 8.738754 -7.142307 
-3.169846 8.485930 -7.142307 
-3.058981 8.738754 -7.142307 
5.151000 8.634383 -7.142307 
5.047543 8.738754 -7.142307 
7.528385 8.490631 -7.142307 
7.288586 8.738754 -7.142307 
-33.396397 9.135970 -7.142307 
-31.698462 9.135970 -7.221942 
-31.805424 9.135970 -7.142307 
-31.302231 9.135970 -7.523089 
-26.151230 9.135970 -7.502497 
-25.754999 8.774493 -7.142307 
-25.754999 9.135970 -7.429975 
-25.358768 8.858949 -7.142307 
-25.358768 9.135970 -7.344210 
-24.962538 9.013826 -7.142307 
-24.962538 9.135970 -7.225520 
-24.748857 9.135970 -7.142307 
-21.000231 8.837218 -7.142307 
-20.604000 8.962754 -7.142307 
-20.207769 9.092478 -7.142307 
-20.009085 9.135970 -7.142307 
-19.811539 9.135970 -7.190342 
-19.415308 9.135970 -7.371165 
-19.019077 9.135970 -7.499258 
-4.754769 8.743522 -7.142307 
-4.598377 9.135970 -7.142307 
-2.773615 9.135970 -7.451112 
-2.891308 9.135970 -7.142307 
4.754769 9.056084 -7.142307 
4.677966 9.135970 -7.142307 
7.132154 8.901596 -7.142307 
6.907212 9.135970 -7.142307 
-33.283386 9.533186 -7.535657 
-33.283386 9.401868 -7.142307 
-33.195137 9.533186 -7.142307 
-31.698462 9.301007 -7.142307 
-31.587687 9.533186 -7.142307 
-31.302231 9.533186 -7.425392 
-25.358768 9.533186 -7.521005 
-24.962538 9.533186 -7.510414 
-24.566307 9.193057 -7.142307 
-24.566307 9.533186 -7.464969 
-24.170076 9.281762 -7.142307 
-24.170076 9.533186 -7.361019 
-23.773846 9.366063 -7.142307 
-23.773846 9.533186 -7.257140 
-23.377615 9.508965 -7.142307 
-23.377615 9.533186 -7.154410 
-23.342434 9.533186 -7.142307 
-19.811539 9.202292 -7.142307 
-19.415308 9.334692 -7.142307 
-19.019077 9.435118 -7.142307 
-18.665672 9.533186 -7.142307 
-18.622847 9.533186 -7.161169 
-18.226616 9.533186 -7.360349 
-4.433735 9.533186 -7.142307 
-2.773615 9.430346 -7.142307 
-2.727202 9.533186 -7.142307 
4.358539 9.476964 -7.142307 
4.304829 9.533186 -7.142307 
6.735923 9.314383 -7.142307 
6.518152 9.533186 -7.142307 
-32.973671 9.930402 -7.142307 
-31.302231 9.930402 -7.194298 
-31.370934 9.930402 -7.142307 
-30.906000 9.930402 -7.513413 
-24.170076 9.930402 -7.530127 
-23.773846 9.930402 -7.505718 
-23.377615 9.930402 -7.473337 
-22.981384 9.664481 -7.142307 
-22.981384 9.930402 -7.427758 
-22.585154 9.763577 -7.142307 
-22.585154 9.930402 -7.282130 
-22.188923 9.905930 -7.142307 
-22.188923 9.930402 -7.157607 
-22.120676 9.930402 -7.142307 
-18.622847 9.554727 -7.142307 
-18.226616 9.640391 -7.142307 
-17.830385 9.699039 -7.142307 
-17.434155 9.830655 -7.142307 
-17.132324 9.930402 -7.142307 
-17.037924 9.930402 -7.288244 
-16.641693 9.930402 -7.538367 
-4.358539 9.930402 -7.402508 
-4.358539 9.713558 -7.142307 
-4.274309 9.930402 -7.142307 
-2.558316 9.930402 -7.142307 
3.962308 9.902154 -7.142307 
3.935385 9.930402 -7.142307 
6.339692 9.719281 -7.142307 
6.136299 9.930402 -7.142307 
-32.887154 10.130799 -7.142307 
-32.761818 10.327619 -7.142307 
-31.302231 10.060828 -7.142307 
-31.199053 10.327619 -7.142307 
-30.906000 10.327619 -7.382290 
-23.377615 10.327619 -7.538150 
-22.981384 10.327619 -7.529255 
-22.585154 10.327619 -7.523042 
-22.188923 10.327619 -7.484720 
-21.792692 10.010209 -7.142307 
-21.792692 10.327619 -7.415372 
-21.396461 10.123490 -7.142307 
-21.396461 10.327619 -7.354787 
-21.000231 10.284229 -7.142307 
-21.000231 10.327619 -7.177185 
-20.933208 10.327619 -7.142307 
-17.037924 9.959462 -7.142307 
-16.641693 10.088939 -7.142307 
-16.245462 10.214286 -7.142307 
-15.886860 10.327619 -7.142307 
-15.849231 10.327619 -7.186717 
-4.103635 10.327619 -7.142307 
-2.377385 10.327619 -7.240152 
-2.405631 10.327619 -7.142307 
3.566077 10.325333 -7.142307 
3.563955 10.327619 -7.142307 
5.943461 10.132313 -7.142307 
5.761827 10.327619 -7.142307 
-32.577862 10.724834 -7.142307 
-30.906000 10.724834 -7.183792 
-30.967018 10.724834 -7.142307 
-30.509769 10.724834 -7.537220 
-20.604000 10.541644 -7.142307 
-20.604000 10.724834 -7.271647 
-20.423197 10.724834 -7.142307 
-15.849231 10.338292 -7.142307 
-15.453000 10.456726 -7.142307 
-15.056769 10.571388 -7.142307 
-14.660539 10.700120 -7.142307 
-14.591753 10.724834 -7.142307 
-14.264308 10.724834 -7.479711 
-3.962308 10.724834 -7.260387 
-3.962308 10.652347 -7.142307 
-3.931459 10.724834 -7.142307 
-2.377385 10.397859 -7.142307 
-2.225843 10.724834 -7.142307 
3.169846 10.724834 -7.158354 
3.174842 10.724834 -7.142307 
5.547231 10.550114 -7.142307 
5.381949 10.724834 -7.142307 
-32.490925 10.908772 -7.142307 
-32.339905 11.122050 -7.142307 
-30.906000 10.807003 -7.142307 
-30.756208 11.122050 -7.142307 
-30.509769 11.122050 -7.405730 
-20.604000 11.122050 -7.510683 
-20.284403 11.122050 -7.142307 
-14.264308 10.823594 -7.142307 
-13.868077 10.950538 -7.142307 
-13.471847 11.083285 -7.142307 
-13.362378 11.122050 -7.142307 
-13.075615 11.122050 -7.439703 
-3.779972 11.122050 -7.142307 
-1.981154 11.122050 -7.449383 
-2.075949 11.122050 -7.142307 
2.773615 11.122050 -7.167133 
3.169846 10.729796 -7.142307 
2.780339 11.122050 -7.142307 
5.151000 10.965354 -7.142307 
5.000786 11.122050 -7.142307 
-32.172836 11.519266 -7.142307 
-30.509769 11.519266 -7.189906 
-30.584309 11.519266 -7.142307 
-30.113539 11.519266 -7.504775 
-20.604000 11.519266 -7.437928 
-20.453510 11.519266 -7.142307 
-13.075615 11.208489 -7.142307 
-12.679384 11.327268 -7.142307 
-12.283154 11.453403 -7.142307 
-12.084011 11.519266 -7.142307 
-11.886923 11.519266 -7.371367 
-3.620383 11.519266 -7.142307 
-1.981154 11.349737 -7.142307 
-1.902835 11.519266 -7.142307 
2.377385 11.519266 -7.152393 
2.773615 11.128318 -7.142307 
2.379496 11.519266 -7.142307 
4.754769 11.378315 -7.142307 
4.618106 11.519266 -7.142307 
-32.094692 11.688929 -7.142307 
-31.935240 11.916483 -7.142307 
-30.509769 11.620277 -7.142307 
-30.358438 11.916483 -7.142307 
-30.113539 11.916483 -7.405014 
-21.000231 11.916483 -7.430508 
-20.604000 11.673510 -7.142307 
-20.872770 11.916483 -7.142307 
-11.886923 11.577157 -7.142307 
-11.490692 11.700089 -7.142307 
-11.094461 11.829972 -7.142307 
-10.827032 11.916483 -7.142307 
-10.698231 11.916483 -7.284444 
-3.566077 11.916483 -7.460682 
-3.566077 11.639637 -7.142307 
-3.457933 11.916483 -7.142307 
-1.739447 11.916483 -7.142307 
1.981154 11.916483 -7.225632 
2.377385 11.521707 -7.142307 
2.004598 11.916483 -7.142307 
4.358539 11.788894 -7.142307 
4.236345 11.916483 -7.142307 
-31.748899 12.313699 -7.142307 
-30.113539 12.313699 -7.152567 
-30.128126 12.313699 -7.142307 
-29.717308 12.313699 -7.502240 
-21.396461 12.276725 -7.142307 
-21.447571 12.313699 -7.142307 
-21.000231 12.009714 -7.142307 
-10.698231 11.954050 -7.142307 
-10.302000 12.069991 -7.142307 
-9.905769 12.186934 -7.142307 
-9.548394 12.313699 -7.142307 
-9.509539 12.313699 -7.195744 
-9.113308 12.313699 -7.481390 
-3.300523 12.313699 -7.142307 
-1.584923 12.301771 -7.142307 
-1.579314 12.313699 -7.142307 
1.584923 12.313699 -7.296466 
1.981154 11.941401 -7.142307 
1.621298 12.313699 -7.142307 
3.962308 12.201935 -7.142307 
3.854985 12.313699 -7.142307 
-31.698462 12.429227 -7.142307 
-31.531853 12.710915 -7.142307 
-30.113539 12.343707 -7.142307 
-29.980377 12.710915 -7.142307 
-29.717308 12.710915 -7.353671 
-22.188923 12.710915 -7.454275 
-21.792692 12.542556 -7.142307 
-22.034801 12.710915 -7.142307 
-9.509539 12.326013 -7.142307 
-9.113308 12.445223 -7.142307 
-8.717077 12.562374 -7.142307 
-8.320847 12.692200 -7.142307 
-8.272362 12.710915 -7.142307 
-7.924615 12.710915 -7.482619 
-3.169846 12.710915 -7.316121 
-3.169846 12.613309 -7.142307 
-3.131755 12.710915 -7.142307 
-1.417581 12.710915 -7.142307 
1.188692 12.710915 -7.307636 
1.584923 12.352061 -7.142307 
1.244113 12.710915 -7.142307 
3.566077 12.614375 -7.142307 
3.473273 12.710915 -7.142307 
-31.356802 13.108131 -7.142307 
-29.717308 13.058965 -7.142307 
-29.690527 13.108131 -7.142307 
-29.321077 13.108131 -7.535908 
-22.585154 13.096263 -7.142307 
-22.601799 13.108131 -7.142307 
-22.188923 12.815712 -7.142307 
-7.924615 12.827853 -7.142307 
-7.528385 12.960862 -7.142307 
-7.132154 13.089076 -7.142307 
-7.076414 13.108131 -7.142307 
-6.735923 13.108131 -7.452806 
-3.016186 13.108131 -7.142307 
-1.188692 13.108131 -7.376238 
-1.266153 13.108131 -7.142307 
0.792462 13.108131 -7.331300 
1.188692 12.768887 -7.142307 
0.863264 13.108131 -7.142307 
3.169846 13.026229 -7.142307 
3.091119 13.108131 -7.142307 
-31.302231 13.220013 -7.142307 
-31.107246 13.505347 -7.142307 
-29.321077 13.505347 -7.361042 
-29.541065 13.505347 -7.142307 
-23.377615 13.505347 -7.487035 
-22.981384 13.353179 -7.142307 
-23.185658 13.505347 -7.142307 
-6.735923 13.202941 -7.142307 
-6.339692 13.316545 -7.142307 
-5.943461 13.449541 -7.142307 
-5.778281 13.505347 -7.142307 
-5.547231 13.505347 -7.368265 
-3.045825 13.505347 -7.142307 
-1.188692 13.276366 -7.142307 
-1.066530 13.505347 -7.142307 
0.396231 13.505347 -7.360746 
0.792462 13.181791 -7.142307 
0.476390 13.505347 -7.142307 
2.773615 13.438365 -7.142307 
2.710395 13.505347 -7.142307 
-30.948677 13.902563 -7.142307 
-29.321077 13.902563 -7.159139 
-29.349649 13.902563 -7.142307 
-28.924847 13.902563 -7.494648 
-23.773846 13.902563 -7.202428 
-23.377615 13.646970 -7.142307 
-23.748924 13.902563 -7.142307 
-20.604000 13.822952 -7.142307 
-20.604000 13.902563 -7.512672 
-20.932934 13.902563 -7.142307 
-20.207769 13.891660 -7.142307 
-20.207769 13.902563 -7.191526 
-20.189447 13.902563 -7.142307 
-5.547231 13.572416 -7.142307 
-5.151000 13.690310 -7.142307 
-4.754769 13.808935 -7.142307 
-4.494803 13.902563 -7.142307 
-4.358539 13.902563 -7.333585 
-3.962308 13.902563 -7.536891 
-3.169846 13.716313 -7.142307 
-3.359707 13.902563 -7.142307 
-0.792462 13.813113 -7.142307 
-0.591690 13.902563 -7.142307 
-0.396231 13.902563 -7.445566 
-0.000000 13.890469 -7.142307 
-0.051976 13.902563 -7.142307 
0.396231 13.581867 -7.142307 
2.377385 13.850857 -7.142307 
2.329750 13.902563 -7.142307 
-30.906000 14.003958 -7.142307 
-30.721319 14.299779 -7.142307 
-29.321077 13.939392 -7.142307 
-29.111931 14.299779 -7.142307 
-28.924847 14.299779 -7.343088 
-24.566307 14.299779 -7.504441 
-24.170076 14.187313 -7.142307 
-24.335974 14.299779 -7.142307 
-23.773846 13.919174 -7.142307 
-21.396461 14.179493 -7.142307 
-21.396461 14.299779 -7.493832 
-21.592012 14.299779 -7.142307 
-21.000231 13.923966 -7.142307 
-19.811539 14.295187 -7.142307 
-19.811539 14.299779 -7.155149 
-19.808863 14.299779 -7.142307 
-4.358539 13.947147 -7.142307 
-3.962308 14.044603 -7.142307 
-3.566077 14.020655 -7.142307 
-0.396231 13.961262 -7.142307 
1.981154 14.264231 -7.142307 
1.946560 14.299779 -7.142307 
-30.544636 14.696996 -7.142307 
-28.924847 14.559669 -7.142307 
-28.796247 14.696996 -7.142307 
-28.528616 14.696996 -7.359848 
-28.132385 14.696996 -7.492730 
-27.736155 14.696996 -7.520060 
-27.339924 14.696996 -7.527400 
-24.962538 14.696996 -7.206533 
-24.566307 14.440204 -7.142307 
-24.935680 14.696996 -7.142307 
-21.792692 14.446456 -7.142307 
-22.153589 14.696996 -7.142307 
-19.811539 14.696996 -7.361592 
-19.752426 14.696996 -7.142307 
1.584923 14.670057 -7.142307 
1.557775 14.696996 -7.142307 
-30.509769 14.785353 -7.142307 
-30.335911 15.094212 -7.142307 
-28.528616 14.892801 -7.142307 
-28.132385 14.969763 -7.142307 
-27.736155 14.993816 -7.142307 
-27.339924 15.051799 -7.142307 
-27.217201 15.094212 -7.142307 
-26.943693 15.094212 -7.276850 
-26.547462 15.094212 -7.437496 
-25.754999 15.094212 -7.451067 
-25.358768 15.037843 -7.142307 
-25.441856 15.094212 -7.142307 
-24.962538 14.722597 -7.142307 
-22.585154 14.985919 -7.142307 
-22.585154 15.094212 -7.418085 
-22.741362 15.094212 -7.142307 
-22.188923 14.722926 -7.142307 
-19.811539 15.000539 -7.142307 
-19.834400 15.094212 -7.142307 
1.188692 15.078076 -7.142307 
1.173267 15.094212 -7.142307 
-30.238428 15.491427 -7.142307 
-26.943693 15.253856 -7.142307 
-26.547462 15.394531 -7.142307 
-26.151230 15.440557 -7.142307 
-25.754999 15.364405 -7.142307 
-22.981384 15.263157 -7.142307 
-22.981384 15.491427 -7.530143 
-23.302214 15.491427 -7.142307 
-19.969704 15.491427 -7.142307 
0.808571 15.491427 -7.142307 
-30.307686 15.888643 -7.142307 
-23.773846 15.831548 -7.142307 
-23.773846 15.888643 -7.321490 
-23.859488 15.888643 -7.142307 
-23.377615 15.545722 -7.142307 
-20.207769 15.888643 -7.487706 
-20.097889 15.888643 -7.142307 
0.792462 15.510902 -7.142307 
0.483106 15.888643 -7.142307 
-30.509769 16.217646 -7.142307 
-30.539619 16.285860 -7.142307 
-24.170076 16.114040 -7.142307 
-24.170076 16.285860 -7.465924 
-24.487625 16.285860 -7.142307 
-20.207769 16.208551 -7.142307 
-20.237001 16.285860 -7.142307 
0.396231 16.039017 -7.142307 
0.290237 16.285860 -7.142307 
-30.712500 16.683075 -7.142307 
-28.924847 16.553932 -7.142307 
-29.063295 16.683075 -7.142307 
-28.528616 16.358294 -7.142307 
-28.132385 16.300009 -7.142307 
-27.736155 16.339560 -7.142307 
-27.339924 16.492561 -7.142307 
-27.098700 16.683075 -7.142307 
-24.962538 16.599665 -7.142307 
-24.962538 16.683075 -7.209493 
-25.055727 16.683075 -7.142307 
-24.566307 16.333467 -7.142307 
-20.363510 16.683075 -7.142307 
0.272749 16.683075 -7.142307 
-30.906000 17.080292 -7.260306 
-30.864319 17.080292 -7.142307 
-29.321077 17.009418 -7.142307 
-29.321077 17.080292 -7.430638 
-29.376616 17.080292 -7.142307 
-26.943693 16.842823 -7.142307 
-26.754782 17.080292 -7.142307 
-24.962538 17.080292 -7.406528 
-25.251232 17.080292 -7.142307 
-20.604000 17.080292 -7.535802 
-20.475761 17.080292 -7.142307 
0.371246 17.080292 -7.142307 
-30.906000 17.213322 -7.142307 
-30.946308 17.477509 -7.142307 
-29.563578 17.477509 -7.142307 
-26.617865 17.477509 -7.142307 
-24.962538 17.477509 -7.434708 
-25.279924 17.477509 -7.142307 
-20.604000 17.477509 -7.197272 
-20.592279 17.477509 -7.142307 
0.396231 17.140514 -7.142307 
0.538372 17.477509 -7.142307 
-30.957592 17.874723 -7.142307 
-29.598417 17.874723 -7.142307 
-26.582882 17.874723 -7.142307 
-24.962538 17.874723 -7.428579 
-25.275751 17.874723 -7.142307 
-20.604000 17.516329 -7.142307 
-20.729132 17.874723 -7.142307 
0.708368 17.874723 -7.142307 
-30.936739 18.271940 -7.142307 
-29.552696 18.271940 -7.142307 
-26.612995 18.271940 -7.142307 
-24.962538 18.271940 -7.447519 
-25.300232 18.271940 -7.142307 
-21.000231 18.271940 -7.509257 
-20.849007 18.271940 -7.142307 
0.792462 18.087576 -7.142307 
0.864340 18.271940 -7.142307 
-30.906000 18.669157 -7.355999 
-30.906000 18.447605 -7.142307 
-30.834570 18.669157 -7.142307 
-29.321077 18.657793 -7.142307 
-29.314728 18.669157 -7.142307 
-26.798063 18.669157 -7.142307 
-24.962538 18.669157 -7.512619 
-25.336905 18.669157 -7.142307 
-21.000231 18.669157 -7.266090 
-20.969904 18.669157 -7.142307 
1.014266 18.669157 -7.142307 
-30.665859 19.066372 -7.142307 
-28.924847 19.066372 -7.210393 
-28.948778 19.066372 -7.142307 
-26.943693 18.845587 -7.142307 
-27.202595 19.066372 -7.142307 
-25.358768 18.753025 -7.142307 
-25.358768 19.066372 -7.256670 
-25.471991 19.066372 -7.142307 
-22.585154 19.066372 -7.538204 
-21.000231 18.760693 -7.142307 
-21.111017 19.066372 -7.142307 
1.188692 19.046726 -7.142307 
1.197680 19.066372 -7.142307 
-30.509769 19.463589 -7.280081 
-30.509769 19.384501 -7.142307 
-30.451912 19.463589 -7.142307 
-28.924847 19.086571 -7.142307 
-28.528616 19.292988 -7.142307 
-28.132385 19.349043 -7.142307 
-27.736155 19.324455 -7.142307 
-27.339924 19.168398 -7.142307 
-25.358768 19.463589 -7.285112 
-25.480759 19.463589 -7.142307 
-23.377615 19.463589 -7.525320 
-22.981384 19.463589 -7.516284 
-22.585154 19.463589 -7.508937 
-22.188923 19.463589 -7.534186 
-21.242002 19.463589 -7.142307 
1.354260 19.463589 -7.142307 
-30.146042 19.860804 -7.142307 
-25.358768 19.649305 -7.142307 
-25.250473 19.860804 -7.142307 
-23.773846 19.860804 -7.527684 
-23.377615 19.860804 -7.505110 
-22.981384 19.860804 -7.491431 
-22.585154 19.860804 -7.488173 
-22.188923 19.860804 -7.524778 
-21.396461 19.860804 -7.268292 
-21.374496 19.860804 -7.142307 
1.499541 19.860804 -7.142307 
-30.113539 19.893684 -7.142307 
-29.717308 20.258020 -7.284619 
-29.717308 20.199121 -7.142307 
-29.640366 20.258020 -7.142307 
-24.962538 20.149040 -7.142307 
-24.846802 20.258020 -7.142307 
-24.566307 20.258020 -7.493953 
-24.170076 20.258020 -7.520991 
-23.773846 20.258020 -7.510264 
-23.377615 20.258020 -7.499808 
-22.981384 20.258020 -7.489922 
-22.585154 20.258020 -7.481335 
-22.188923 20.258020 -7.507860 
-21.396461 19.930023 -7.142307 
-21.503017 20.258020 -7.142307 
1.584923 20.112106 -7.142307 
1.629118 20.258020 -7.142307 
-29.321077 20.420385 -7.142307 
-28.924847 20.655237 -7.301576 
-28.924847 20.609953 -7.142307 
-28.774298 20.655237 -7.142307 
-24.566307 20.517113 -7.142307 
-24.443962 20.655237 -7.142307 
-24.170076 20.655237 -7.475588 
-23.773846 20.655237 -7.498813 
-23.377615 20.655237 -7.491462 
-22.981384 20.655237 -7.492975 
-22.585154 20.655237 -7.487913 
-22.188923 20.655237 -7.511443 
-21.623247 20.655237 -7.142307 
1.738196 20.655237 -7.142307 
-28.528616 20.691019 -7.142307 
-28.132385 20.713848 -7.142307 
-27.736155 20.709267 -7.142307 
-27.339924 20.676161 -7.142307 
-26.943693 20.656460 -7.142307 
-26.547462 20.779541 -7.142307 
-26.277054 21.052452 -7.142307 
-24.170076 20.981159 -7.142307 
-24.113630 21.052452 -7.142307 
-23.773846 21.052452 -7.523304 
-23.377615 21.052452 -7.520696 
-22.981384 21.052452 -7.509912 
-22.585154 21.052452 -7.513462 
-22.188923 21.052452 -7.528646 
-21.792692 21.052452 -7.377528 
-21.726625 21.052452 -7.142307 
1.842961 21.052452 -7.142307 
-26.151230 21.196774 -7.142307 
-25.962782 21.449669 -7.142307 
-23.773846 21.429455 -7.142307 
-23.755444 21.449669 -7.142307 
-22.981384 21.449669 -7.525488 
-22.585154 21.449669 -7.526157 
-22.188923 21.449669 -7.536253 
-21.792692 21.285969 -7.142307 
-21.849009 21.449669 -7.142307 
1.981154 21.449669 -7.501106 
1.960835 21.449669 -7.142307 
-25.754999 21.685598 -7.142307 
-25.615385 21.846886 -7.142307 
-23.377615 21.846886 -7.262166 
-23.410343 21.846886 -7.142307 
-22.188923 21.846886 -7.479551 
-22.037405 21.846886 -7.142307 
1.981154 21.523148 -7.142307 
2.058925 21.846886 -7.142307 
-25.358768 22.131124 -7.142307 
-25.252644 22.244101 -7.142307 
-23.377615 21.882023 -7.142307 
-22.981384 22.182287 -7.142307 
-22.633453 22.244101 -7.142307 
-22.585154 22.244101 -7.177675 
-22.188923 22.028904 -7.142307 
-22.567146 22.244101 -7.142307 
2.142385 22.244101 -7.142307 
-24.962538 22.563618 -7.142307 
-24.890587 22.641317 -7.142307 
-22.585154 22.250818 -7.142307 
2.204144 22.641317 -7.142307 
-24.566307 23.011948 -7.142307 
-24.542387 23.038532 -7.142307 
-9.509539 23.003887 -7.142307 
-9.551963 23.038532 -7.142307 
-9.113308 22.796608 -7.142307 
-8.717077 22.742722 -7.142307 
-8.320847 22.789106 -7.142307 
-7.924615 22.971842 -7.142307 
-7.837283 23.038532 -7.142307 
2.233401 23.038532 -7.142307 
-24.193354 23.435749 -7.142307 
-9.905769 23.396439 -7.142307 
-9.936790 23.435749 -7.142307 
-7.528385 23.318733 -7.142307 
-7.430836 23.435749 -7.142307 
2.257352 23.435749 -7.142307 
-24.170076 23.461946 -7.142307 
-23.841623 23.832966 -7.142307 
-10.102840 23.832966 -7.142307 
-7.265586 23.832966 -7.142307 
2.268624 23.832966 -7.142307 
-23.773846 23.909254 -7.142307 
-23.490873 24.230181 -7.142307 
-10.148553 24.230181 -7.142307 
-7.233389 24.230181 -7.142307 
2.278980 24.230181 -7.142307 
-23.377615 24.357628 -7.142307 
-23.135336 24.627398 -7.142307 
-10.080050 24.627398 -7.142307 
-7.299883 24.627398 -7.142307 
2.285278 24.627398 -7.142307 
-22.981384 24.801046 -7.142307 
-22.780214 25.024614 -7.142307 
-9.905769 25.024614 -7.498202 
-9.905769 24.973671 -7.142307 
-9.873853 25.024614 -7.142307 
-7.488716 25.024614 -7.142307 
2.276586 25.024614 -7.142307 
-22.585154 25.242710 -7.142307 
-22.423748 25.421829 -7.142307 
-9.509539 25.379354 -7.142307 
-9.438782 25.421829 -7.142307 
-7.528385 25.072233 -7.142307 
-7.913180 25.421829 -7.142307 
2.258301 25.421829 -7.142307 
-22.188923 25.689066 -7.142307 
-22.080503 25.819046 -7.142307 
-9.113308 25.588270 -7.142307 
-8.717077 25.650629 -7.142307 
-8.320847 25.606655 -7.142307 
-7.924615 25.430719 -7.142307 
2.206124 25.819046 -7.142307 
-21.792692 26.151123 -7.142307 
-21.734961 26.216263 -7.142307 
2.125723 26.216263 -7.142307 
-21.396461 26.585323 -7.142307 
-21.370670 26.613478 -7.142307 
2.044296 26.613478 -7.142307 
-21.018589 27.010695 -7.142307 
1.981154 26.861422 -7.142307 
1.935618 27.010695 -7.142307 
-21.000231 27.031090 -7.142307 
-20.666882 27.407909 -7.142307 
1.826419 27.407909 -7.142307 
-20.604000 27.479502 -7.142307 
-20.326021 27.805126 -7.142307 
1.723284 27.805126 -7.142307 
-20.207769 27.941776 -7.142307 
-19.965626 28.202343 -7.142307 
1.594141 28.202343 -7.142307 
-19.811539 28.370327 -7.142307 
-19.609175 28.599558 -7.142307 
1.584923 28.226084 -7.142307 
1.418256 28.599558 -7.142307 
-19.415308 28.826639 -7.142307 
-19.267239 28.996775 -7.142307 
1.240588 28.996775 -7.142307 
-19.019077 29.279371 -7.142307 
-18.915041 29.393991 -7.142307 
1.188692 29.094879 -7.142307 
1.011476 29.393991 -7.142307 
-18.622847 29.717493 -7.142307 
-18.555502 29.791206 -7.142307 
0.792462 29.767784 -7.142307 
0.792462 29.791206 -7.310931 
0.778056 29.791206 -7.142307 
-18.226616 30.188423 -7.366727 
-18.226616 30.167139 -7.142307 
-18.206829 30.188423 -7.142307 
0.539029 30.188423 -7.142307 
-17.853039 30.585638 -7.142307 
0.396231 30.430706 -7.142307 
0.297871 30.585638 -7.142307 
-17.830385 30.611198 -7.142307 
-17.500708 30.982855 -7.142307 
0.003364 30.982855 -7.142307 
-17.434155 31.058867 -7.142307 
-17.147785 31.380072 -7.142307 
-0.000000 30.986856 -7.142307 
-0.368968 31.380072 -7.142307 
-17.037924 31.494087 -7.142307 
-16.734615 31.777287 -7.142307 
-0.396231 31.409357 -7.142307 
-0.744832 31.777287 -7.142307 
-16.641693 31.862844 -7.142307 
-16.303152 32.174503 -7.142307 
-0.792462 31.827230 -7.142307 
-1.114494 32.174503 -7.142307 
-16.245462 32.226868 -7.142307 
-15.871634 32.571720 -7.142307 
-1.188692 32.252731 -7.142307 
-1.512323 32.571720 -7.142307 
-15.849231 32.592232 -7.142307 
-15.453000 32.968937 -7.414202 
-15.453000 32.946430 -7.142307 
-15.425246 32.968937 -7.142307 
-1.981154 32.940689 -7.142307 
-1.981154 32.968937 -7.454762 
-2.021105 32.968937 -7.142307 
-1.584923 32.634392 -7.142307 
-15.056769 33.224712 -7.142307 
-14.843628 33.366150 -7.142307 
-2.377385 33.216122 -7.142307 
-2.594968 33.366150 -7.142307 
-14.660539 33.480190 -7.142307 
-14.264308 33.763367 -7.438125 
-14.264308 33.721806 -7.142307 
-14.192760 33.763367 -7.142307 
-3.169846 33.708893 -7.142307 
-3.256390 33.763367 -7.142307 
-2.773615 33.476635 -7.142307 
-13.868077 33.929134 -7.142307 
-13.471847 34.160583 -7.405608 
-13.471847 34.129238 -7.142307 
-13.405478 34.160583 -7.142307 
-3.566077 33.954426 -7.142307 
-3.912633 34.160583 -7.142307 
-13.075615 34.292286 -7.142307 
-12.679384 34.457935 -7.142307 
-12.464011 34.557800 -7.142307 
-4.754769 34.462761 -7.142307 
-5.022331 34.557800 -7.142307 
-4.358539 34.335609 -7.142307 
-3.962308 34.186405 -7.142307 
-12.283154 34.632114 -7.142307 
-11.886923 34.741215 -7.142307 
-11.490692 34.840603 -7.142307 
-11.094461 34.955017 -7.219419 
-11.094461 34.949783 -7.142307 
-11.066013 34.955017 -7.142307 
-5.943461 34.842865 -7.142307 
-6.270074 34.955017 -7.142307 
-5.547231 34.715801 -7.142307 
-5.151000 34.597385 -7.142307 
-10.698231 35.015560 -7.142307 
-10.302000 35.083694 -7.142307 
-9.905769 35.156349 -7.142307 
-9.509539 35.198189 -7.142307 
-9.113308 35.227058 -7.142307 
-8.717077 35.237507 -7.142307 
-8.320847 35.203312 -7.142307 
-7.924615 35.170704 -7.142307 
-7.528385 35.150887 -7.142307 
-7.132154 35.119732 -7.142307 
-6.735923 35.072647 -7.142307 
-6.339692 34.978130 -7.142307 
15.453000 -34.955017 -7.066803 
15.849231 -34.955017 -7.032521 
16.245462 -34.955017 -7.023659 
16.641693 -34.955017 -7.020976 
17.037924 -34.955017 -7.018501 
17.434155 -34.955017 -7.023030 
17.830385 -34.955017 -7.045167 
18.226616 -34.955017 -7.124437 
14.264308 -34.557800 -7.106186 
14.660539 -34.557800 -7.023850 
15.056769 -34.557800 -6.988429 
15.453000 -34.557800 -6.987717 
15.849231 -34.557800 -7.000221 
16.245462 -34.557800 -7.008070 
16.641693 -34.557800 -7.008154 
17.037924 -34.557800 -7.003582 
17.434155 -34.557800 -6.992614 
17.830385 -34.557800 -6.984593 
18.226616 -34.557800 -6.995821 
18.622847 -34.557800 -7.013031 
19.019077 -34.557800 -7.060506 
13.868077 -34.160583 -7.033816 
14.264308 -34.160583 -6.998735 
14.660539 -34.160583 -6.985785 
15.056769 -34.160583 -6.992201 
15.453000 -34.160583 -7.003317 
15.849231 -34.160583 -7.015255 
16.245462 -34.160583 -7.026426 
16.641693 -34.160583 -7.029173 
17.037924 -34.160583 -7.025822 
17.434155 -34.160583 -7.015747 
17.830385 -34.160583 -7.000093 
18.226616 -34.160583 -6.994289 
18.622847 -34.160583 -6.993477 
19.019077 -34.160583 -6.981190 
19.415308 -34.160583 -7.012756 
19.811539 -34.160583 -7.123473 
13.075615 -33.763367 -7.142118 
13.471847 -33.763367 -7.021991 
13.868077 -33.763367 -6.997607 
14.264308 -33.763367 -6.992515 
14.660539 -33.763367 -6.998617 
15.056769 -33.763367 -7.015056 
15.453000 -33.763367 -7.030308 
15.849231 -33.763367 -7.050686 
16.245462 -33.763367 -7.085555 
16.641693 -33.763367 -7.107203 
17.037924 -33.763367 -7.092913 
17.434155 -33.763367 -7.069502 
17.830385 -33.763367 -7.032598 
18.226616 -33.763367 -7.013033 
18.622847 -33.763367 -7.004369 
19.019077 -33.763367 -6.994940 
19.415308 -33.763367 -6.989886 
19.811539 -33.763367 -7.004336 
20.207769 -33.763367 -7.079513 
12.679384 -33.366150 -7.138296 
13.075615 -33.366150 -7.017953 
13.471847 -33.366150 -6.999143 
13.868077 -33.366150 -6.996105 
14.264308 -33.366150 -7.012511 
14.660539 -33.366150 -7.061180 
18.622847 -33.366150 -7.079777 
19.019077 -33.366150 -7.016637 
19.415308 -33.366150 -6.993652 
19.811539 -33.366150 -6.989684 
20.207769 -33.366150 -7.003922 
20.604000 -33.366150 -7.090697 
12.679384 -32.968937 -7.019611 
13.075615 -32.968937 -6.994868 
13.471847 -32.968937 -7.000293 
13.868077 -32.968937 -7.025723 
14.264308 -32.968937 -7.073781 
19.019077 -32.968937 -7.115708 
19.415308 -32.968937 -7.034816 
19.811539 -32.968937 -6.994767 
20.207769 -32.968937 -6.988206 
20.604000 -32.968937 -6.998600 
21.000231 -32.968937 -7.112807 
12.283154 -32.571720 -7.049685 
12.679384 -32.571720 -6.980670 
13.075615 -32.571720 -6.993101 
13.471847 -32.571720 -7.027994 
13.868077 -32.571720 -7.090787 
15.453000 -32.571720 -7.099139 
15.849231 -32.571720 -6.861136 
16.245462 -32.571720 -6.758888 
16.641693 -32.584278 -6.745512 
16.453184 -32.571720 -6.745512 
17.024584 -32.571720 -6.745512 
17.037924 -32.571720 -6.745920 
17.434155 -32.571720 -6.823000 
17.830385 -32.571720 -7.053613 
19.811539 -32.571720 -7.027139 
20.207769 -32.571720 -6.997613 
20.604000 -32.571720 -6.985386 
21.000231 -32.571720 -7.003497 
21.396461 -32.571720 -7.133326 
12.283154 -32.174503 -6.995538 
12.679384 -32.174503 -6.984652 
13.075615 -32.174503 -7.008035 
13.471847 -32.174503 -7.086725 
15.056769 -32.174503 -6.850260 
15.453000 -32.176971 -6.745512 
15.446233 -32.174503 -6.745512 
15.849231 -32.252354 -6.745512 
16.245462 -32.424286 -6.745512 
17.037924 -32.562412 -6.745512 
17.434155 -32.274635 -6.745512 
17.701614 -32.174503 -6.745512 
17.830385 -32.174503 -6.752785 
18.226616 -32.174503 -6.796967 
20.207769 -32.174503 -7.025007 
20.604000 -32.174503 -6.996749 
21.000231 -32.174503 -6.981062 
21.396461 -32.174503 -7.003537 
11.886923 -31.777287 -7.046669 
12.283154 -31.777287 -6.989120 
12.679384 -31.777287 -6.997179 
13.075615 -31.777287 -7.034910 
14.660539 -31.777287 -6.854323 
15.056769 -31.822969 -6.745512 
15.019882 -31.777287 -6.745512 
17.830385 -32.089138 -6.745512 
18.226616 -31.864334 -6.745512 
18.356966 -31.777287 -6.745512 
18.622847 -31.777287 -6.771291 
20.207769 -31.777287 -7.094032 
20.604000 -31.777287 -7.024791 
21.000231 -31.777287 -6.993186 
21.396461 -31.777287 -6.975530 
21.792692 -31.777287 -7.006975 
11.886923 -31.380072 -7.010841 
12.283154 -31.380072 -6.990462 
12.679384 -31.380072 -7.012390 
13.075615 -31.380072 -7.095800 
14.264308 -31.380072 -6.885299 
14.660539 -31.380072 -6.753592 
14.796374 -31.380072 -6.745512 
16.245462 -31.653690 -6.745512 
16.245462 -31.380072 -6.849904 
15.896656 -31.380072 -6.745512 
16.641693 -31.690407 -6.745512 
16.641693 -31.380072 -6.982929 
17.037924 -31.638655 -6.745512 
17.037924 -31.380072 -6.884746 
17.434155 -31.386522 -6.745512 
17.434155 -31.380072 -6.746682 
17.442854 -31.380072 -6.745512 
18.622847 -31.571905 -6.745512 
18.776049 -31.380072 -6.745512 
19.019077 -31.380072 -6.790911 
20.604000 -31.380072 -7.086954 
21.000231 -31.380072 -7.015139 
21.396461 -31.380072 -6.992728 
21.792692 -31.380072 -6.987289 
22.188923 -31.380072 -7.027066 
11.886923 -30.982855 -7.001287 
12.283154 -30.982855 -6.994335 
12.679384 -30.982855 -7.032883 
14.264308 -30.982855 -6.773684 
14.660539 -30.982855 -6.746369 
14.692596 -30.982855 -6.745512 
15.453000 -31.053511 -6.745512 
15.453000 -30.982855 -6.751316 
15.357114 -30.982855 -6.745512 
15.849231 -31.363123 -6.745512 
17.830385 -31.205879 -6.745512 
17.830385 -30.982855 -6.827930 
18.038580 -30.982855 -6.745512 
19.019077 -31.178099 -6.745512 
19.084311 -30.982855 -6.745512 
19.415308 -30.982855 -7.094553 
21.000231 -30.982855 -7.060477 
21.396461 -30.982855 -7.009763 
21.792692 -30.982855 -6.999762 
22.188923 -30.982855 -6.997770 
22.585154 -30.982855 -7.048009 
11.490692 -30.585638 -7.113742 
11.886923 -30.585638 -6.999766 
12.283154 -30.585638 -6.990660 
12.679384 -30.585638 -7.040610 
13.868077 -30.585638 -6.998761 
14.264308 -30.585638 -6.750622 
14.660539 -30.909504 -6.745512 
14.477720 -30.585638 -6.745512 
15.082014 -30.585638 -6.745512 
18.200891 -30.585638 -6.745512 
19.415308 -30.585638 -6.856071 
19.188236 -30.585638 -6.745512 
21.396461 -30.585638 -7.044096 
21.792692 -30.585638 -6.999522 
22.188923 -30.585638 -6.998945 
22.585154 -30.585638 -7.004841 
22.981384 -30.585638 -7.051325 
11.490692 -30.188423 -7.089246 
11.886923 -30.188423 -6.998164 
12.283154 -30.188423 -6.985063 
12.679384 -30.188423 -7.039265 
13.868077 -30.188423 -6.906104 
14.264308 -30.494364 -6.745512 
14.198209 -30.188423 -6.745512 
15.057806 -30.188423 -6.745512 
18.226616 -30.188423 -6.830719 
18.226616 -30.455885 -6.745512 
18.474461 -30.188423 -6.745512 
19.415308 -30.188423 -6.803690 
19.205830 -30.188423 -6.745512 
21.792692 -30.188423 -7.046334 
22.188923 -30.188423 -7.005449 
22.585154 -30.188423 -7.003549 
22.981384 -30.188423 -7.000931 
23.377615 -30.188423 -7.076943 
11.490692 -29.791206 -7.079182 
11.886923 -29.791206 -6.998137 
12.283154 -29.791206 -6.980947 
12.679384 -29.791206 -7.039096 
13.868077 -29.791206 -6.884872 
14.162769 -29.791206 -6.745512 
15.056769 -30.152666 -6.745512 
15.056769 -29.791206 -6.757853 
14.985304 -29.791206 -6.745512 
18.226616 -29.791206 -6.899539 
18.519936 -29.791206 -6.745512 
19.415308 -29.791206 -6.801265 
19.198282 -29.791206 -6.745512 
22.188923 -29.791206 -7.037967 
22.585154 -29.791206 -7.006702 
22.981384 -29.791206 -6.990079 
23.377615 -29.791206 -6.997752 
23.773846 -29.791206 -7.100759 
11.490692 -29.393991 -7.096115 
11.886923 -29.393991 -7.004245 
12.283154 -29.393991 -6.988719 
12.679384 -29.393991 -7.034104 
13.868077 -29.393991 -6.944364 
14.206869 -29.393991 -6.745512 
15.056769 -29.583193 -6.745512 
15.068572 -29.393991 -6.745512 
18.226616 -29.393991 -6.777372 
18.388321 -29.393991 -6.745512 
19.415308 -29.393991 -6.832139 
19.139454 -29.393991 -6.745512 
22.188923 -29.393991 -7.129064 
22.585154 -29.393991 -7.038259 
22.981384 -29.393991 -7.005366 
23.377615 -29.393991 -6.988606 
23.773846 -29.393991 -7.006909 
24.170076 -29.393991 -7.123347 
11.490692 -28.996775 -7.129271 
11.886923 -28.996775 -7.013232 
12.283154 -28.996775 -7.006034 
12.679384 -28.996775 -7.037470 
13.868077 -28.996775 -7.108773 
14.258060 -28.996775 -6.745512 
15.453000 -28.996775 -6.903846 
15.150444 -28.996775 -6.745512 
17.830385 -28.996775 -7.137615 
18.226616 -29.221203 -6.745512 
18.180901 -28.996775 -6.745512 
19.415308 -28.996775 -6.924005 
19.092474 -28.996775 -6.745512 
22.585154 -28.996775 -7.091336 
22.981384 -28.996775 -7.034459 
23.377615 -28.996775 -6.996656 
23.773846 -28.996775 -6.990962 
24.170076 -28.996775 -7.008044 
11.886923 -28.599558 -7.019420 
12.283154 -28.599558 -7.012877 
12.679384 -28.599558 -7.032784 
14.264308 -28.959854 -6.745512 
14.264308 -28.599558 -6.785325 
14.506263 -28.599558 -6.745512 
15.453000 -28.654053 -6.745512 
15.504636 -28.599558 -6.745512 
15.849231 -28.599558 -6.898609 
17.434155 -28.599558 -6.997571 
17.830385 -28.599558 -6.748971 
17.861652 -28.599558 -6.745512 
19.019077 -28.814333 -6.745512 
19.019077 -28.599558 -6.776865 
18.817814 -28.599558 -6.745512 
22.981384 -28.599558 -7.084167 
23.377615 -28.599558 -7.018470 
23.773846 -28.599558 -6.995289 
24.170076 -28.599558 -6.983195 
24.566307 -28.599558 -7.012157 
11.886923 -28.202343 -7.032387 
12.283154 -28.202343 -6.999531 
12.679384 -28.202343 -7.008128 
13.075615 -28.202343 -7.056660 
14.264308 -28.202343 -7.085985 
14.660539 -28.375196 -6.745512 
14.660539 -28.202343 -6.761447 
14.845520 -28.202343 -6.745512 
15.849231 -28.266281 -6.745512 
16.245462 -28.204796 -6.745512 
16.279091 -28.202343 -6.745512 
16.641693 -28.202343 -6.762389 
17.037924 -28.202343 -6.756095 
17.434155 -28.244543 -6.745512 
17.204739 -28.202343 -6.745512 
17.830385 -28.566719 -6.745512 
18.622847 -28.275101 -6.745512 
18.622847 -28.202343 -6.751180 
18.537397 -28.202343 -6.745512 
19.019077 -28.202343 -6.988749 
23.377615 -28.202343 -7.076615 
23.773846 -28.202343 -7.016325 
24.170076 -28.202343 -6.995142 
24.566307 -28.202343 -6.984840 
24.962538 -28.202343 -7.007835 
11.886923 -27.805126 -7.098281 
12.283154 -27.805126 -6.999973 
12.679384 -27.805126 -6.994876 
13.075615 -27.805126 -7.009828 
14.660539 -27.805126 -6.951181 
15.054988 -27.805126 -6.745512 
16.641693 -28.063753 -6.745512 
17.037924 -28.088316 -6.745512 
18.226616 -27.831667 -6.745512 
18.226616 -27.805126 -6.747153 
18.212063 -27.805126 -6.745512 
18.622847 -27.805126 -6.900655 
23.773846 -27.805126 -7.092859 
24.170076 -27.805126 -7.024212 
24.566307 -27.805126 -6.993188 
24.962538 -27.805126 -6.983024 
25.358768 -27.805126 -6.997630 
25.754999 -27.805126 -7.065935 
12.283154 -27.407909 -7.013931 
12.679384 -27.407909 -6.991262 
13.075615 -27.407909 -6.994333 
13.471847 -27.407909 -7.051367 
15.056769 -27.803873 -6.745512 
15.056769 -27.407909 -7.087499 
15.453000 -27.689167 -6.745512 
15.453000 -27.407909 -6.805834 
15.849231 -27.557638 -6.745512 
15.849231 -27.407909 -6.757765 
16.041550 -27.407909 -6.745512 
17.434155 -27.413378 -6.745512 
17.434155 -27.407909 -6.745928 
17.419952 -27.407909 -6.745512 
17.830385 -27.606079 -6.745512 
17.830385 -27.407909 -6.796969 
18.226616 -27.407909 -7.052963 
24.170076 -27.407909 -7.125694 
24.566307 -27.407909 -7.030110 
24.962538 -27.407909 -6.999462 
25.358768 -27.407909 -6.993145 
25.754999 -27.407909 -6.998295 
26.151230 -27.407909 -7.031079 
12.283154 -27.010695 -7.092369 
12.679384 -27.010695 -6.987494 
13.075615 -27.010695 -6.991624 
13.471847 -27.010695 -7.006343 
13.868077 -27.010695 -7.062367 
16.245462 -27.379955 -6.745512 
16.245462 -27.010695 -7.036208 
16.641693 -27.357967 -6.745512 
16.641693 -27.010695 -6.982403 
17.037924 -27.381868 -6.745512 
17.037924 -27.010695 -7.022948 
24.962538 -27.010695 -7.041770 
25.358768 -27.010695 -7.010231 
25.754999 -27.010695 -6.993857 
26.151230 -27.010695 -6.996079 
26.547462 -27.010695 -7.011093 
26.943693 -27.010695 -7.118870 
12.679384 -26.613478 -7.047551 
13.075615 -26.613478 -6.990582 
13.471847 -26.613478 -6.988389 
13.868077 -26.613478 -7.010488 
14.264308 -26.613478 -7.103299 
25.358768 -26.613478 -7.071711 
25.754999 -26.613478 -7.012028 
26.151230 -26.613478 -6.994448 
26.547462 -26.613478 -6.993043 
26.943693 -26.613478 -6.999583 
27.339924 -26.613478 -7.054533 
13.075615 -26.216263 -7.023314 
13.471847 -26.216263 -6.990998 
13.868077 -26.216263 -6.985815 
14.264308 -26.216263 -7.019827 
25.754999 -26.216263 -7.077722 
26.151230 -26.216263 -7.026140 
26.547462 -26.216263 -6.996343 
26.943693 -26.216263 -6.992266 
27.339924 -26.216263 -6.990332 
27.736155 -26.216263 -7.021466 
13.471847 -25.819046 -7.005955 
13.868077 -25.819046 -6.982559 
14.264308 -25.819046 -6.993578 
14.660539 -25.819046 -7.042185 
26.151230 -25.819046 -7.090518 
26.547462 -25.819046 -7.036715 
26.943693 -25.819046 -6.998289 
27.339924 -25.819046 -6.987787 
27.736155 -25.819046 -6.979174 
28.132385 -25.819046 -6.996779 
28.528616 -25.819046 -7.099383 
13.471847 -25.421829 -7.093235 
13.868077 -25.421829 -6.987354 
14.264308 -25.421829 -6.989695 
14.660539 -25.421829 -7.009379 
15.056769 -25.421829 -7.053720 
26.547462 -25.421829 -7.135910 
26.943693 -25.421829 -7.035042 
27.339924 -25.421829 -7.001234 
27.736155 -25.421829 -6.991637 
28.132385 -25.421829 -6.981471 
28.528616 -25.421829 -6.995472 
28.924847 -25.421829 -7.047867 
13.868077 -25.024614 -7.055722 
14.264308 -25.024614 -6.993540 
14.660539 -25.024614 -6.996619 
15.056769 -25.024614 -7.022848 
27.339924 -25.024614 -7.080645 
27.736155 -25.024614 -7.031568 
28.132385 -25.024614 -7.006510 
28.528616 -25.024614 -6.986875 
28.924847 -25.024614 -6.993879 
