12.419348 22.682203 14.686627 
12.847602 22.682203 14.602687 
-13.704108 22.719379 14.878391 
-13.704108 23.110170 14.684426 
-13.467569 23.110170 14.878391 
-7.280308 22.926943 14.878391 
-7.280308 23.110170 14.775615 
-7.480767 23.110170 14.878391 
-6.959895 23.110170 14.878391 
1.284760 22.696278 14.878391 
1.713014 22.687714 14.878391 
4.710787 22.716398 14.878391 
5.139040 22.808563 14.878391 
5.390357 23.110170 14.878391 
5.567294 23.110170 14.799317 
5.995547 23.110170 14.671000 
6.423801 23.110170 14.635812 
6.852054 23.110170 14.604171 
7.280308 23.110170 14.453787 
11.991095 23.110170 14.553694 
12.419348 23.110170 14.603469 
12.847602 23.110170 14.637127 
13.275855 23.110170 14.613744 
-13.275855 23.377369 14.878391 
-13.275855 23.538136 14.781788 
-13.142028 23.538136 14.878391 
-7.708561 23.364902 14.878391 
-7.708561 23.538136 14.776120 
-7.842960 23.538136 14.878391 
-7.280308 23.538136 14.501836 
-6.852054 23.286957 14.878391 
-6.852054 23.538136 14.797235 
-6.805284 23.538136 14.878391 
5.567294 23.284603 14.878391 
5.818328 23.538136 14.878391 
5.995547 23.538136 14.788689 
6.423801 23.538136 14.674000 
6.852054 23.538136 14.508320 
12.419348 23.538136 14.520012 
12.847602 23.538136 14.676632 
13.275855 23.538136 14.774696 
13.704108 23.538136 14.679461 
-13.275855 23.966103 14.464927 
-12.847602 23.819298 14.878391 
-12.847602 23.966103 14.765841 
-12.683372 23.966103 14.878391 
-8.136814 23.830299 14.878391 
-8.136814 23.966103 14.772923 
-8.343702 23.966103 14.878391 
-7.708561 23.966103 14.474984 
-6.852054 23.966103 14.864316 
-6.848044 23.966103 14.878391 
5.995547 23.639076 14.878391 
6.423801 23.829103 14.878391 
6.575042 23.966103 14.878391 
12.847602 23.966103 14.668726 
13.275855 23.966103 14.809140 
13.704108 23.966103 14.787951 
14.132361 23.966103 14.448022 
-12.419348 24.176582 14.878391 
-12.419348 24.394068 14.685022 
-12.104409 24.394068 14.878391 
-8.993321 24.331995 14.878391 
-8.993321 24.394068 14.829365 
-9.108150 24.394068 14.878391 
-8.565067 24.099405 14.878391 
-8.565067 24.394068 14.649212 
-6.852054 23.994776 14.878391 
-6.903041 24.394068 14.878391 
6.852054 24.285776 14.878391 
6.930294 24.394068 14.878391 
12.847602 24.394068 14.499910 
13.275855 24.394068 14.645400 
13.704108 24.394068 14.681241 
-11.991095 24.463003 14.878391 
-11.991095 24.822035 14.509477 
-11.562841 24.675396 14.878391 
-11.562841 24.822035 14.723408 
-11.181239 24.822035 14.878391 
-9.849828 24.748640 14.878391 
-9.849828 24.822035 14.820636 
-10.087547 24.822035 14.878391 
-9.421575 24.564835 14.878391 
-9.421575 24.822035 14.682394 
-8.993321 24.822035 14.512452 
-6.940322 24.822035 14.878391 
7.276564 24.822035 14.878391 
13.275855 24.822035 14.484602 
13.704108 24.822035 14.511985 
-11.134588 24.839178 14.878391 
-10.706335 25.250000 14.552171 
-10.706335 24.911228 14.878391 
-10.278081 24.878189 14.878391 
-10.278081 25.250000 14.562763 
-9.849828 25.250000 14.501260 
-6.957060 25.250000 14.878391 
7.280308 24.826498 14.878391 
7.697131 25.250000 14.878391 
7.708561 25.250000 14.849153 
13.704108 25.250000 14.453305 
-6.946362 25.677965 14.878391 
7.708561 25.258682 14.878391 
8.136814 25.475760 14.878391 
8.565067 25.620863 14.878391 
8.762653 25.677965 14.878391 
8.993321 25.677965 14.714270 
11.134588 25.677965 14.662677 
11.562841 25.592453 14.878391 
11.407957 25.677965 14.878391 
11.991095 25.555508 14.878391 
12.419348 25.660778 14.878391 
12.504231 25.677965 14.878391 
12.847602 25.677965 14.781711 
13.275855 25.677965 14.800968 
13.704108 25.677965 14.814718 
14.132361 25.677965 14.759272 
14.560616 25.677965 14.534659 
-6.939454 26.105932 14.878391 
8.993321 25.745480 14.878391 
9.421575 25.862183 14.878391 
9.849828 25.959822 14.878391 
10.278081 26.032454 14.878391 
10.706335 26.081972 14.878391 
11.134588 25.882586 14.878391 
12.847602 25.743961 14.878391 
13.275855 25.745380 14.878391 
13.704108 25.734909 14.878391 
14.132361 25.764746 14.878391 
14.560616 25.902740 14.878391 
14.988869 26.103966 14.878391 
14.991971 26.105932 14.878391 
-6.945425 26.533897 14.878391 
15.417122 26.379488 14.878391 
15.587761 26.533897 14.878391 
-6.971281 26.961864 14.878391 
15.845375 26.807514 14.878391 
15.952737 26.961864 14.878391 
-6.872694 27.389830 14.878391 
-6.852054 27.389830 14.548765 
16.222038 27.389830 14.878391 
-6.852054 27.445642 14.878391 
-6.684490 27.817797 14.878391 
16.273628 27.478184 14.878391 
16.482344 27.817797 14.878391 
-9.421575 28.245762 14.521760 
-8.993321 28.245762 14.601017 
-8.565067 28.245762 14.589478 
-8.136814 28.245762 14.529828 
-6.623189 28.245762 14.878391 
16.701881 28.190577 14.878391 
16.735170 28.245762 14.878391 
-11.134588 28.673729 14.567672 
-10.706335 28.673729 14.821991 
-10.278081 28.572075 14.878391 
-10.613157 28.673729 14.878391 
-9.849828 28.474207 14.878391 
-9.421575 28.412766 14.878391 
-8.993321 28.387218 14.878391 
-8.565067 28.389374 14.878391 
-8.136814 28.390661 14.878391 
-7.708561 28.465693 14.878391 
-7.280308 28.501060 14.878391 
-6.852054 28.455553 14.878391 
16.972389 28.673729 14.878391 
-11.991095 29.101694 14.557178 
-11.562841 29.049631 14.878391 
-11.649412 29.101694 14.878391 
-11.134588 28.864878 14.878391 
-10.706335 28.704735 14.878391 
17.130135 29.058382 14.878391 
17.148003 29.101694 14.878391 
-12.419348 29.529661 14.539387 
-11.991095 29.369080 14.878391 
-12.140692 29.529661 14.878391 
17.342743 29.529661 14.878391 
-12.419348 29.957626 14.845856 
-12.393011 29.957626 14.878391 
17.558390 29.957626 14.837031 
17.540222 29.957626 14.878391 
-12.847602 30.385593 14.565804 
-12.419348 30.025408 14.878391 
-12.557884 30.385593 14.878391 
17.558390 30.028873 14.878391 
17.642372 30.385593 14.878391 
-12.847602 30.813559 14.603711 
-12.574949 30.813559 14.878391 
15.845375 30.593678 14.878391 
15.845375 30.813559 14.776539 
15.676765 30.813559 14.878391 
16.273628 30.695766 14.878391 
16.273628 30.813559 14.764761 
16.506601 30.813559 14.878391 
17.558390 30.603565 14.878391 
17.558390 30.813559 14.772407 
17.354885 30.813559 14.878391 
-12.847602 31.241526 14.557278 
-12.524674 31.241526 14.878391 
15.845375 31.241526 14.669488 
15.623821 31.241526 14.878391 
16.701881 30.894543 14.878391 
17.130135 31.241526 14.481917 
17.130135 30.907936 14.878391 
-12.847602 31.669491 14.489302 
-12.457224 31.669491 14.878391 
15.845375 31.669491 14.646353 
15.640689 31.669491 14.878391 
-12.419348 31.828379 14.878391 
-12.419348 32.097458 14.814993 
-12.356430 32.097458 14.878391 
15.845375 32.097458 14.673399 
15.665834 32.097458 14.878391 
-12.419348 32.525425 14.747075 
-12.284448 32.525425 14.878391 
15.845375 32.525425 14.608160 
15.621245 32.525425 14.878391 
-12.419348 32.953388 14.696165 
-12.227788 32.953388 14.878391 
15.845375 32.953388 14.449625 
15.515495 32.953388 14.878391 
-12.419348 33.381355 14.451223 
-11.991095 33.364605 14.878391 
-11.991095 33.381355 14.861923 
-11.973064 33.381355 14.878391 
15.417122 33.161274 14.878391 
15.417122 33.381355 14.736771 
15.301695 33.381355 14.878391 
-11.562841 33.552635 14.878391 
-11.134588 33.655499 14.878391 
-10.706335 33.710381 14.878391 
-10.278081 33.753014 14.878391 
-9.849828 33.809322 14.749364 
-9.849828 33.797344 14.878391 
-9.717500 33.809322 14.878391 
15.033618 33.809322 14.878391 
-9.421575 33.836002 14.878391 
-8.993321 33.871780 14.878391 
-8.565067 33.915890 14.878391 
-8.136814 33.973148 14.878391 
-7.708561 34.033447 14.878391 
-7.280308 34.086967 14.878391 
-6.852054 34.134056 14.878391 
-6.423801 34.174526 14.878391 
-5.995547 34.207729 14.878391 
-5.567294 34.237289 14.853083 
-5.567294 34.235844 14.878391 
-5.546188 34.237289 14.878391 
14.988869 33.869556 14.878391 
14.988869 34.237289 14.547976 
14.674892 34.237289 14.878391 
-5.139040 34.265209 14.878391 
-4.710787 34.294189 14.878391 
-4.282534 34.321926 14.878391 
-3.854280 34.347191 14.878391 
-3.426027 34.368488 14.878391 
-2.997774 34.386005 14.878391 
-2.569520 34.400414 14.878391 
-2.141267 34.411304 14.878391 
-1.713014 34.417576 14.878391 
-1.284760 34.420612 14.878391 
-0.856507 34.422482 14.878391 
-0.428253 34.425484 14.878391 
0.000000 34.431904 14.878391 
0.428253 34.443233 14.878391 
0.856507 34.458927 14.878391 
1.284760 34.478394 14.878391 
1.713014 34.500999 14.878391 
2.141267 34.526104 14.878391 
2.569520 34.552864 14.878391 
2.997774 34.580822 14.878391 
3.426027 34.609421 14.878391 
3.854280 34.665253 14.453411 
3.854280 34.637794 14.878391 
4.282534 34.665237 14.878391 
4.282534 34.665253 14.878129 
4.282804 34.665253 14.878391 
14.560616 34.348312 14.878391 
14.560616 34.665253 14.527513 
14.228584 34.665253 14.878391 
4.710787 34.691612 14.878391 
5.139040 34.717438 14.878391 
5.567294 34.742790 14.878391 
5.995547 34.767605 14.878391 
6.423801 34.791893 14.878391 
6.852054 34.815575 14.878391 
7.280308 34.838665 14.878391 
7.708561 34.861443 14.878391 
8.136814 34.884415 14.878391 
8.565067 34.908821 14.878391 
8.993321 34.934975 14.878391 
9.421575 34.962299 14.878391 
9.849828 34.991283 14.878391 
10.278081 35.024033 14.878391 
10.706335 35.057480 14.878391 
11.134588 35.093220 14.794932 
11.134588 35.088535 14.878391 
11.204691 35.093220 14.878391 
13.704108 35.029655 14.878391 
13.704108 35.093220 14.755109 
13.540133 35.093220 14.878391 
14.132361 34.748234 14.878391 
11.562841 35.117172 14.878391 
11.991095 35.145672 14.878391 
12.419348 35.179310 14.878391 
12.847602 35.209522 14.878391 
13.275855 35.173916 14.878391 
-17.558390 -36.007927 15.309649 
-17.694633 -35.949154 15.309649 
-17.558390 -35.949154 15.218112 
-17.130135 -35.949154 15.087030 
-17.130135 -36.039333 15.309649 
-16.912401 -35.949154 15.309649 
-17.986643 -35.773697 15.309649 
-18.376762 -35.521187 15.309649 
-17.986643 -35.521187 15.042951 
-16.701881 -35.850227 15.309649 
-16.273628 -35.638996 15.309649 
-15.978661 -35.521187 15.309649 
-19.699656 -35.135906 15.309649 
-19.870258 -35.093220 15.309649 
-19.699656 -35.093220 15.238155 
-19.271402 -35.093220 15.058816 
-19.271402 -35.249569 15.309649 
-18.843149 -35.093220 14.885485 
-18.843149 -35.368282 15.309649 
-18.414896 -35.500607 15.309649 
-15.845375 -35.471771 15.309649 
-15.417122 -35.338608 15.309649 
-14.988869 -35.183609 15.309649 
-14.754229 -35.093220 15.309649 
-20.984415 -34.794666 15.309649 
-21.357218 -34.665253 15.309649 
-20.984415 -34.665253 15.097179 
-20.556162 -34.665253 14.887240 
-20.556162 -34.918556 15.309649 
-20.127909 -35.029896 15.309649 
-14.560616 -35.017975 15.309649 
-14.132361 -34.849426 15.309649 
-13.704108 -34.665253 15.267022 
-13.704108 -34.675915 15.309649 
-13.678192 -34.665253 15.309649 
-21.840923 -34.449738 15.309649 
-22.243078 -34.237289 15.309649 
-21.840923 -34.237289 15.008068 
-21.412670 -34.644485 15.309649 
-13.275855 -34.498547 15.309649 
-12.847602 -34.237289 14.943656 
-12.847602 -34.330685 15.309649 
-12.593413 -34.237289 15.309649 
-22.697430 -33.956795 15.309649 
-22.923353 -33.809322 15.309649 
-22.697430 -33.809322 15.137075 
-22.269176 -34.221973 15.309649 
-12.419348 -34.175720 15.309649 
-11.991095 -34.021111 15.309649 
-11.562841 -33.809322 15.133461 
-11.562841 -33.851765 15.309649 
-11.453539 -33.809322 15.309649 
-23.125683 -33.661335 15.309649 
-23.467230 -33.381355 15.309649 
-23.125683 -33.381355 15.024021 
-11.134588 -33.686405 15.309649 
-10.706335 -33.527344 15.309649 
-10.342737 -33.381355 15.309649 
-23.553936 -33.305866 15.309649 
-23.935455 -32.953388 15.309649 
-23.553936 -32.953388 14.962263 
-10.278081 -33.353790 15.309649 
-9.849828 -33.117496 15.309649 
-9.601662 -32.953388 15.309649 
-23.982189 -32.909744 15.309649 
-24.380123 -32.525425 15.309649 
-23.982189 -32.525425 14.926297 
-9.421575 -32.827866 15.309649 
-9.014071 -32.525425 15.309649 
-24.410442 -32.495201 15.309649 
-24.793980 -32.097458 15.309649 
-24.410442 -32.097458 14.925813 
-8.993321 -32.509560 15.309649 
-8.565067 -32.155525 15.309649 
-8.501472 -32.097458 15.309649 
-24.838696 -32.048889 15.309649 
-25.177097 -31.669491 15.309649 
-24.838696 -31.669491 14.960578 
-8.136814 -31.700666 15.309649 
-8.113648 -31.669491 15.309649 
-25.266951 -31.563898 15.309649 
-25.538597 -31.241526 15.309649 
-25.266951 -31.241526 15.022495 
-7.708561 -31.241526 14.909864 
-7.914570 -31.241526 15.309649 
-25.695204 -31.057028 15.309649 
-25.901743 -30.813559 15.309649 
-25.695204 -30.813559 15.081276 
-7.708561 -30.813559 15.242645 
-7.759580 -30.813559 15.309649 
-26.123457 -30.570503 15.309649 
-26.299791 -30.385593 15.309649 
-26.123457 -30.385593 15.099399 
-14.560616 -30.417999 15.309649 
-14.560616 -30.385593 15.255449 
-14.611951 -30.385593 15.309649 
-14.132361 -30.656874 15.309649 
-13.704108 -30.742811 15.309649 
-13.275855 -30.688978 15.309649 
-12.847602 -30.385593 15.054754 
-12.847602 -30.540688 15.309649 
-12.545503 -30.385593 15.309649 
-7.708561 -30.625151 15.309649 
-7.638191 -30.385593 15.309649 
-7.280308 -30.385593 14.941320 
-26.551710 -30.186827 15.309649 
-26.922178 -29.957626 15.309649 
-17.558390 -29.986414 15.309649 
-17.558390 -29.957626 15.267348 
-17.616730 -29.957626 15.309649 
-17.130135 -30.153360 15.309649 
-17.130135 -29.957626 14.996732 
-16.701881 -30.248726 15.309649 
-16.273628 -30.311726 15.309649 
-15.845375 -30.227793 15.309649 
-15.417122 -29.957626 15.273900 
-15.417122 -29.980782 15.309649 
-14.988869 -30.048384 15.309649 
-14.988869 -29.957626 15.229283 
-12.419348 -30.273333 15.309649 
-12.419348 -29.957626 15.027077 
-12.211958 -29.957626 15.309649 
-10.706335 -30.022005 15.309649 
-10.706335 -29.957626 15.227595 
-10.931445 -29.957626 15.309649 
-10.414181 -29.957626 15.309649 
-7.280308 -29.957626 15.055989 
-7.567081 -29.957626 15.309649 
-27.408216 -29.678375 15.309649 
-27.594193 -29.529661 15.309649 
-27.408216 -29.529661 15.125725 
-26.979963 -29.925863 15.309649 
-17.986643 -29.725527 15.309649 
-17.986643 -29.529661 15.134144 
-18.283339 -29.529661 15.309649 
-17.558390 -29.529661 14.878983 
-12.419348 -29.529661 14.942602 
-11.991095 -29.676037 15.309649 
-11.991095 -29.529661 15.113311 
-11.562841 -29.707890 15.309649 
-11.134588 -29.903666 15.309649 
-10.278081 -29.924900 15.309649 
-9.849828 -29.529661 15.006955 
-9.849828 -29.722820 15.309649 
-9.421575 -29.532345 15.309649 
-9.421575 -29.529661 15.304872 
-9.415931 -29.529661 15.309649 
-7.280308 -29.529661 15.059528 
-7.643005 -29.529661 15.309649 
-27.803299 -29.101694 15.309649 
-27.408216 -29.101694 14.943993 
-18.414896 -29.412096 15.309649 
-18.414896 -29.101694 15.122582 
-18.746740 -29.101694 15.309649 
-17.986643 -29.101694 14.889402 
-8.993321 -29.314713 15.309649 
-8.993321 -29.101694 15.006343 
-8.565067 -29.118715 15.309649 
-8.565067 -29.101694 15.290345 
-8.429810 -29.101694 15.309649 
-7.708561 -29.397751 15.309649 
-7.708561 -29.101694 15.215831 
-8.037601 -29.101694 15.309649 
-7.280308 -29.101694 15.014628 
-27.562700 -28.673729 15.309649 
-27.408216 -28.673729 15.145707 
-18.843149 -28.934208 15.309649 
-18.843149 -28.673729 15.219085 
-18.984808 -28.673729 15.309649 
-18.414896 -28.673729 14.969281 
-8.136814 -29.061062 15.309649 
-8.136814 -28.673729 14.982632 
-7.708561 -28.673729 15.014388 
-7.280308 -28.673729 14.926042 
-27.547880 -28.245762 15.309649 
-27.408216 -28.245762 15.141113 
-18.843149 -28.245762 15.075891 
-19.192347 -28.245762 15.309649 
-27.633627 -27.817797 15.309649 
-27.408216 -27.817797 15.038395 
-20.127909 -27.826216 15.309649 
-20.127909 -27.817797 15.294841 
-20.142883 -27.817797 15.309649 
-19.699656 -28.040735 15.309649 
-19.699656 -27.817797 14.958187 
-19.271402 -28.204302 15.309649 
-27.749350 -27.389830 15.309649 
-27.408216 -27.389830 14.903126 
-20.556162 -27.571293 15.309649 
-20.556162 -27.389830 15.047826 
-20.790413 -27.389830 15.309649 
-27.836470 -27.064367 15.309649 
-27.864580 -26.961864 15.309649 
-27.836470 -26.961864 15.275726 
-20.984415 -27.165026 15.309649 
-20.984415 -26.961864 15.126803 
-21.121883 -26.961864 15.309649 
-27.994659 -26.533897 15.309649 
-27.836470 -26.533897 15.121620 
-20.984415 -26.533897 14.885160 
-21.209202 -26.533897 15.309649 
-28.132799 -26.105932 15.309649 
-27.836470 -26.105932 14.958116 
-21.235851 -26.105932 15.309649 
-28.264723 -25.754047 15.309649 
-28.293053 -25.677965 15.309649 
-28.264723 -25.677965 15.274639 
-21.317989 -25.677965 15.309649 
-28.477100 -25.250000 15.309649 
-28.264723 -25.250000 15.042356 
-21.412670 -25.534513 15.309649 
-21.412670 -25.250000 15.044277 
-21.767347 -25.250000 15.309649 
-28.672609 -24.822035 15.309649 
-23.125683 -24.952696 15.309649 
-23.125683 -24.822035 15.104579 
-23.335411 -24.822035 15.309649 
-22.697430 -25.080889 15.309649 
-22.269176 -25.097563 15.309649 
-21.840923 -25.204208 15.309649 
-28.692976 -24.778969 15.309649 
-28.872997 -24.394068 15.309649 
-28.692976 -24.394068 15.071261 
-23.553936 -24.572462 15.309649 
-23.553936 -24.394068 15.173721 
-23.665041 -24.394068 15.309649 
-29.073187 -23.966103 15.309649 
-23.553936 -23.966103 15.053161 
-23.772175 -23.966103 15.309649 
-29.121231 -23.860802 15.309649 
-29.266804 -23.538136 15.309649 
-29.121231 -23.538136 15.105304 
-23.553936 -23.538136 15.107524 
-23.730375 -23.538136 15.309649 
-29.460032 -23.110170 15.309649 
-23.553936 -23.110170 15.119034 
-23.795698 -23.110170 15.309649 
-29.549484 -22.915211 15.309649 
-29.654163 -22.682203 15.309649 
-29.549484 -22.682203 15.159180 
-24.838696 -22.720201 15.309649 
-24.838696 -22.682203 15.274095 
-24.973728 -22.682203 15.309649 
-24.410442 -22.749601 15.309649 
-24.410442 -22.682203 15.219468 
-23.982189 -22.912029 15.309649 
-23.982189 -22.682203 15.040518 
-29.827225 -22.254238 15.309649 
-29.549484 -22.254238 14.911571 
-25.266951 -22.539515 15.309649 
-25.266951 -22.254238 15.164956 
-25.450321 -22.254238 15.309649 
-24.838696 -22.254238 14.895329 
-29.968103 -21.826271 15.309649 
-25.266951 -21.826271 14.967898 
-25.662573 -21.826271 15.309649 
-29.977737 -21.793140 15.309649 
-30.093182 -21.398306 15.309649 
-29.977737 -21.398306 15.152122 
-25.695204 -21.759392 15.309649 
-25.695204 -21.398306 15.167197 
-25.854475 -21.398306 15.309649 
-30.229544 -20.970339 15.309649 
-29.977737 -20.970339 14.969334 
-25.695204 -20.970339 15.129585 
-25.955591 -20.970339 15.309649 
-25.266951 -20.970339 14.896940 
-30.372375 -20.542374 15.309649 
-25.695204 -20.542374 15.287143 
-25.734838 -20.542374 15.309649 
-25.266951 -20.542374 15.068793 
-30.405991 -20.446360 15.309649 
-30.523304 -20.114407 15.309649 
-30.405991 -20.114407 15.144006 
-25.695204 -20.490561 15.309649 
-25.439981 -20.114407 15.309649 
-25.266951 -20.114407 15.179981 
-30.687862 -19.686441 15.309649 
-30.405991 -19.686441 14.904346 
-25.266951 -19.686441 15.024454 
-25.491074 -19.686441 15.309649 
-30.834244 -19.326395 15.309649 
-30.862339 -19.258474 15.309649 
-30.834244 -19.258474 15.268571 
-25.695204 -19.390049 15.309649 
-25.695204 -19.258474 15.175309 
-25.796587 -19.258474 15.309649 
-31.059797 -18.830509 15.309649 
-30.834244 -18.830509 14.985628 
-26.059080 -18.830509 15.309649 
-31.262497 -18.452808 15.309649 
-31.289438 -18.402542 15.309649 
-31.262497 -18.402542 15.266247 
-26.123457 -18.703352 15.309649 
-26.123457 -18.402542 15.137598 
-26.274288 -18.402542 15.309649 
-31.537807 -17.974577 15.309649 
-26.123457 -17.974577 14.961925 
-26.458158 -17.974577 15.309649 
-31.690750 -17.663336 15.309649 
-31.746876 -17.546610 15.309649 
-31.690750 -17.546610 15.179222 
-26.551710 -17.768230 15.309649 
-26.551710 -17.546610 15.205652 
-26.648127 -17.546610 15.309649 
-32.019955 -17.118645 15.309649 
-26.551710 -17.118645 15.058530 
-26.824987 -17.118645 15.309649 
-32.119003 -16.994238 15.309649 
-32.364384 -16.690678 15.309649 
-32.119003 -16.690678 14.882127 
-26.979963 -16.780054 15.309649 
-26.979963 -16.690678 15.272424 
-27.017645 -16.690678 15.309649 
-26.551710 -16.690678 14.977924 
-32.506878 -16.262712 15.309649 
-26.979963 -16.262712 15.090926 
-27.223919 -16.262712 15.309649 
-26.551710 -16.262712 14.899332 
-32.365322 -15.834745 15.309649 
-32.119003 -15.834745 15.033440 
-27.408216 -15.842237 15.309649 
-27.408216 -15.834745 15.306386 
-27.411108 -15.834745 15.309649 
-26.979963 -15.834745 14.929054 
-32.258354 -15.406779 15.309649 
-32.119003 -15.406779 15.129821 
-27.408216 -15.406779 15.218002 
-27.483332 -15.406779 15.309649 
-32.180550 -14.978813 15.309649 
-32.119003 -14.978813 15.225228 
-27.408216 -15.157817 15.309649 
-27.350246 -14.978813 15.309649 
-32.119003 -14.679420 15.309649 
-32.092655 -14.550847 15.309649 
-26.979963 -14.550847 14.969814 
-27.080477 -14.550847 15.309649 
-32.011871 -14.122881 15.309649 
-26.979963 -14.141467 15.309649 
-26.976025 -14.122881 15.309649 
-31.944361 -13.694915 15.309649 
-31.690750 -13.694915 14.919713 
-26.979963 -14.111685 15.309649 
-26.979963 -13.694915 15.150629 
-27.218596 -13.694915 15.309649 
-31.890936 -13.266949 15.309649 
-31.690750 -13.266949 14.984257 
-26.979963 -13.266949 15.073716 
-27.382776 -13.266949 15.309649 
-31.858042 -12.838983 15.309649 
-31.690750 -12.838983 15.023102 
-27.408216 -13.186590 15.309649 
-27.408216 -12.838983 15.239648 
-27.521900 -12.838983 15.309649 
-26.979963 -12.838983 15.029654 
-31.850334 -12.411017 15.309649 
-31.690750 -12.411017 15.020206 
-27.408216 -12.411017 15.179706 
-27.622993 -12.411017 15.309649 
-26.979963 -12.411017 14.965344 
-31.867012 -11.983051 15.309649 
-31.690750 -11.983051 14.976221 
-27.408216 -11.983051 15.203847 
-27.539309 -11.983051 15.309649 
-31.873369 -11.555085 15.309649 
-31.690750 -11.555085 14.944289 
-27.408216 -11.555085 15.147575 
-27.548229 -11.555085 15.309649 
-31.859549 -11.127119 15.309649 
-31.690750 -11.127119 14.931540 
-27.825443 -11.127119 15.309649 
-31.796913 -10.699153 15.309649 
-31.690750 -10.699153 14.992585 
-28.264723 -10.743111 15.309649 
-28.264723 -10.699153 15.269762 
-28.328173 -10.699153 15.309649 
-27.836470 -11.115054 15.309649 
-27.836470 -10.699153 14.923893 
-31.690750 -10.307258 15.309649 
-31.679396 -10.271187 15.309649 
-28.264723 -10.271187 15.083924 
-28.653257 -10.271187 15.309649 
-31.437235 -9.843221 15.309649 
-28.692976 -10.158417 15.309649 
-28.692976 -9.843221 15.249486 
-28.813869 -9.843221 15.309649 
-28.264723 -9.843221 15.004874 
-31.262497 -9.415255 15.082674 
-31.262497 -9.592021 15.309649 
-31.087006 -9.415255 15.309649 
-28.692976 -9.415255 15.190917 
-28.966911 -9.415255 15.309649 
-28.264723 -9.415255 14.972178 
-1.284760 -9.415255 14.922765 
-0.856507 -9.415255 15.049469 
-0.428253 -9.415255 15.054746 
0.000000 -9.415255 15.009561 
0.428253 -9.415255 14.998517 
0.856507 -9.415255 14.893347 
-30.834244 -9.131872 15.309649 
-30.834244 -8.987288 15.206885 
-30.623039 -8.987288 15.309649 
-28.692976 -8.987288 15.168339 
-29.090103 -8.987288 15.309649 
-28.264723 -8.987288 14.986872 
-0.856507 -8.987288 14.941631 
-0.428253 -8.987288 14.908235 
0.000000 -8.987288 14.930296 
0.428253 -8.987288 15.032619 
0.856507 -8.987288 15.113656 
1.284760 -8.987288 14.978415 
3.854280 -8.987288 14.901820 
4.282534 -8.987288 14.883451 
-30.834244 -8.559322 14.984417 
-30.405991 -8.764424 15.309649 
-30.405991 -8.559322 15.236876 
-30.068520 -8.559322 15.309649 
-28.692976 -8.559322 15.183013 
-29.092981 -8.559322 15.309649 
-28.264723 -8.559322 15.035690 
-27.836470 -8.559322 14.882515 
0.856507 -8.559322 15.162636 
1.284760 -8.559322 15.169186 
3.854280 -8.559322 14.956507 
4.282534 -8.559322 15.041011 
-30.405991 -8.131356 15.176226 
-29.979799 -8.131356 15.309649 
-28.692976 -8.131356 15.212773 
-29.049253 -8.131356 15.309649 
-28.264723 -8.131356 15.095733 
-27.836470 -8.131356 14.976551 
0.856507 -8.131356 15.079148 
1.284760 -8.131356 15.218207 
1.713014 -8.131356 15.090988 
4.282534 -8.131356 14.964843 
-30.405991 -7.703390 15.184824 
-30.145815 -7.703390 15.309649 
-28.692976 -7.703390 15.285905 
-28.789291 -7.703390 15.309649 
-28.264723 -7.703390 15.189133 
-27.836470 -7.703390 15.095426 
-27.408216 -7.703390 14.984905 
0.856507 -7.703390 14.898820 
1.284760 -7.703390 15.190820 
1.713014 -7.703390 15.220676 
2.141267 -7.703390 14.993148 
2.569520 -7.703390 14.889731 
-30.405991 -7.275424 15.270367 
-30.339289 -7.275424 15.309649 
-28.692976 -7.615770 15.309649 
-28.264723 -7.299360 15.309649 
-28.232021 -7.275424 15.309649 
-27.836470 -7.275424 15.216938 
-27.408216 -7.275424 15.020552 
1.284760 -7.275424 15.098451 
1.713014 -7.275424 15.306594 
2.141267 -7.275424 15.177591 
2.569520 -7.275424 15.069538 
2.997774 -7.275424 14.984619 
3.426027 -7.275424 14.918843 
-30.834244 -6.847457 15.003951 
-30.405991 -7.178290 15.309649 
-30.553240 -6.847457 15.309649 
-27.836470 -6.847457 15.246196 
-27.972723 -6.847457 15.309649 
-27.408216 -6.847457 14.883706 
1.713014 -6.847457 15.140717 
2.141267 -6.847457 15.230724 
2.569520 -6.847457 15.194010 
2.997774 -6.847457 15.135557 
3.426027 -6.847457 15.042369 
3.854280 -6.847457 14.949754 
4.282534 -6.847457 14.903601 
-30.834244 -6.419491 15.274746 
-30.799908 -6.419491 15.309649 
-27.836470 -6.419491 15.092652 
-28.076702 -6.419491 15.309649 
2.141267 -6.419491 15.007125 
2.569520 -6.419491 15.175083 
2.997774 -6.419491 15.224354 
3.426027 -6.419491 15.162001 
3.854280 -6.419491 15.050287 
4.282534 -6.419491 14.921478 
-31.262497 -5.991526 15.084371 
-30.834244 -6.365508 15.309649 
-31.054214 -5.991526 15.309649 
-28.264723 -6.023662 15.309649 
-28.264723 -5.991526 15.296133 
-28.280031 -5.991526 15.309649 
-27.836470 -5.991526 14.912652 
-2.997774 -5.991526 14.895489 
-2.569520 -5.991526 14.879504 
2.569520 -5.991526 14.915379 
2.997774 -5.991526 15.098978 
3.426027 -5.991526 15.135580 
3.854280 -5.991526 15.035196 
-31.262497 -5.563560 15.269805 
-31.217745 -5.563560 15.309649 
-28.264723 -5.563560 15.122503 
-28.472645 -5.563560 15.309649 
-4.710787 -5.563560 14.930579 
-4.282534 -5.563560 15.063395 
-3.854280 -5.563560 15.158514 
-3.426027 -5.563560 15.195454 
-2.997774 -5.563560 15.178857 
-2.569520 -5.563560 15.115628 
-2.141267 -5.563560 15.011827 
-31.262497 -5.135593 15.234879 
-31.171659 -5.135593 15.309649 
-28.692976 -5.241481 15.309649 
-28.692976 -5.135593 15.239551 
-28.788343 -5.135593 15.309649 
-5.567294 -5.135593 14.920711 
-5.139040 -5.135593 15.105763 
-4.710787 -5.135593 15.258282 
-4.282534 -5.235765 15.309649 
-4.533795 -5.135593 15.309649 
-3.854280 -5.349685 15.309649 
-3.426027 -5.384418 15.309649 
-2.997774 -5.315662 15.309649 
-2.592571 -5.135593 15.309649 
-2.569520 -5.135593 15.304668 
-2.141267 -5.135593 15.181232 
-1.713014 -5.135593 15.005680 
-30.834244 -4.829475 15.309649 
-30.834244 -4.707627 15.190907 
-30.405991 -4.735007 15.309649 
-30.405991 -4.707627 15.275589 
-29.977737 -4.738721 15.309649 
-29.977737 -4.707627 15.261312 
-29.549484 -4.800440 15.309649 
-29.549484 -4.707627 15.156900 
-29.121231 -4.926248 15.309649 
-29.121231 -4.707627 15.009826 
-5.995547 -4.707627 15.040946 
-5.567294 -4.707627 15.243092 
-5.139040 -4.837275 15.309649 
-5.384259 -4.707627 15.309649 
-4.710787 -5.052484 15.309649 
-2.569520 -5.119458 15.309649 
-2.173728 -4.707627 15.309649 
-2.141267 -4.707627 15.299394 
-1.713014 -4.707627 15.118844 
-1.284760 -4.707627 14.899981 
-6.852054 -4.279661 14.973755 
-6.423801 -4.279661 15.152892 
-5.995547 -4.313842 15.309649 
-6.051210 -4.279661 15.309649 
-5.567294 -4.598217 15.309649 
-2.141267 -4.626726 15.309649 
-2.040421 -4.279661 15.309649 
-1.713014 -4.279661 15.163524 
-1.284760 -4.279661 14.938596 
-7.708561 -3.851695 15.071844 
-7.280308 -3.851695 15.246194 
-6.852054 -3.913170 15.309649 
-7.058039 -3.851695 15.309649 
-6.423801 -4.067437 15.309649 
-1.713014 -3.851695 15.171365 
-2.013384 -3.851695 15.309649 
-1.284760 -3.851695 14.940976 
-8.993321 -3.423729 14.886514 
-8.565067 -3.423729 15.142294 
-8.136814 -3.484768 15.309649 
-8.279620 -3.423729 15.309649 
-7.708561 -3.641667 15.309649 
-7.280308 -3.785501 15.309649 
-1.713014 -3.423729 15.167336 
-2.015161 -3.423729 15.309649 
-1.284760 -3.423729 14.931533 
-9.849828 -2.995763 14.931100 
-9.421575 -2.995763 15.188072 
-8.993321 -3.093115 15.309649 
-9.202737 -2.995763 15.309649 
-8.565067 -3.291556 15.309649 
-1.713014 -2.995763 15.133583 
-2.071616 -2.995763 15.309649 
-1.284760 -2.995763 14.895411 
-10.278081 -2.567797 15.163376 
-9.849828 -2.674756 15.309649 
-10.046019 -2.567797 15.309649 
-9.421575 -2.890139 15.309649 
-2.141267 -2.704780 15.309649 
-2.141267 -2.567797 15.293593 
-2.179509 -2.567797 15.309649 
-1.713014 -2.567797 15.086770 
-11.134588 -2.139831 15.045794 
-10.706335 -2.163045 15.309649 
-10.743814 -2.139831 15.309649 
-10.278081 -2.432623 15.309649 
-2.141267 -2.139831 15.218502 
-2.359886 -2.139831 15.309649 
-1.713014 -2.139831 15.019210 
-11.562841 -1.711864 15.226908 
-11.134588 -1.900803 15.309649 
-11.443139 -1.711864 15.309649 
-2.569520 -1.796248 15.309649 
-2.569520 -1.711864 15.288434 
-2.622409 -1.711864 15.309649 
-2.141267 -1.711864 15.106896 
-1.713014 -1.711864 14.908047 
-12.419348 -1.283898 14.928124 
-11.991095 -1.316987 15.309649 
-12.029168 -1.283898 15.309649 
-11.562841 -1.634295 15.309649 
-2.569520 -1.283898 15.193925 
-2.850114 -1.283898 15.309649 
-2.141267 -1.283898 15.003098 
-12.419348 -0.900566 15.309649 
-12.456779 -0.855932 15.309649 
-2.997774 -0.874551 15.309649 
-2.997774 -0.855932 15.306932 
-3.004917 -0.855932 15.309649 
-2.569520 -0.855932 15.134830 
-2.141267 -0.855932 14.954770 
-12.847602 -0.427966 15.116529 
-12.702173 -0.427966 15.309649 
-2.997774 -0.427966 15.266805 
-3.113953 -0.427966 15.309649 
-2.569520 -0.427966 15.099947 
-2.141267 -0.427966 14.939295 
-12.847602 0.000000 15.191125 
-12.756012 0.000000 15.309649 
-2.997774 0.000000 15.218806 
-3.261694 0.000000 15.309649 
-2.569520 0.000000 15.066385 
-2.141267 0.000000 14.921922 
-12.847602 0.427966 15.187134 
-12.751444 0.427966 15.309649 
-3.426027 0.253624 15.309649 
-3.426027 0.427966 15.269801 
-3.564888 0.427966 15.309649 
-2.997774 0.427966 15.139614 
-2.569520 0.427966 15.009224 
-2.141267 0.427966 14.887703 
-12.847602 0.855932 15.149443 
-12.734308 0.855932 15.309649 
-3.854280 0.673834 15.309649 
-3.854280 0.855932 15.245424 
-4.147985 0.855932 15.309649 
-3.426027 0.855932 15.148236 
-2.997774 0.855932 15.043106 
-2.569520 0.855932 14.939757 
-12.847602 1.283898 15.046368 
-12.673519 1.283898 15.309649 
-4.710787 1.066491 15.309649 
-4.710787 1.283898 15.193757 
-5.069610 1.283898 15.309649 
-4.282534 0.908245 15.309649 
-4.282534 1.283898 15.092850 
-3.854280 1.283898 15.029279 
-3.426027 1.283898 14.970865 
-12.578710 1.711864 15.309649 
-4.710787 1.711864 15.097090 
-5.067932 1.711864 15.309649 
-4.282534 1.711864 14.885733 
-12.454447 2.139831 15.309649 
-4.710787 2.063862 15.309649 
-4.614117 2.139831 15.309649 
-4.282534 2.139831 15.104576 
-12.419348 2.567797 15.128911 
-12.419348 2.243991 15.309649 
-12.290217 2.567797 15.309649 
-4.282534 2.320565 15.309649 
-3.854280 2.531871 15.309649 
-3.782580 2.567797 15.309649 
-3.426027 2.567797 14.957780 
-12.120690 2.995763 15.309649 
-3.426027 2.729473 15.309649 
-2.997774 2.931916 15.309649 
-2.850664 2.995763 15.309649 
-2.569520 2.995763 14.938721 
-11.991095 3.423729 15.249897 
-11.991095 3.315107 15.309649 
-11.942986 3.423729 15.309649 
-2.569520 3.115472 15.309649 
-2.141267 3.284910 15.309649 
-1.821763 3.423729 15.309649 
-1.713014 3.423729 15.170591 
-11.991095 3.851695 14.928177 
-11.705916 3.851695 15.309649 
-1.713014 3.473834 15.309649 
-1.284760 3.658542 15.309649 
-0.856507 3.825592 15.309649 
-0.801935 3.851695 15.309649 
-11.562841 4.100594 15.309649 
-11.562841 4.279661 15.189404 
-11.453357 4.279661 15.309649 
-0.428253 4.048870 15.309649 
-0.043937 4.279661 15.309649 
0.000000 4.279661 15.255944 
-11.562841 4.707627 14.882605 
-11.210568 4.707627 15.309649 
0.000000 4.309140 15.309649 
0.428253 4.643362 15.309649 
0.507254 4.707627 15.309649 
-11.134588 4.842664 15.309649 
-11.134588 5.135593 15.132609 
-10.959018 5.135593 15.309649 
0.856507 5.015599 15.309649 
0.984806 5.135593 15.309649 
1.284760 5.135593 14.925085 
-10.706335 5.561678 15.309649 
-10.706335 5.563560 15.308594 
-10.705116 5.563560 15.309649 
1.284760 5.470900 15.309649 
1.363758 5.563560 15.309649 
1.713014 5.563560 14.884313 
-10.706335 5.991526 15.055717 
-10.428585 5.991526 15.309649 
1.713014 5.991526 15.280308 
1.685348 5.991526 15.309649 
-10.278081 6.236831 15.309649 
-10.278081 6.419491 15.214994 
-10.150490 6.419491 15.309649 
1.713014 6.036401 15.309649 
1.941983 6.419491 15.309649 
2.141267 6.419491 15.105291 
-10.278081 6.847457 14.988465 
-9.856622 6.847457 15.309649 
2.141267 6.838772 15.309649 
2.145144 6.847457 15.309649 
2.569520 6.847457 14.884904 
-9.849828 6.855848 15.309649 
-9.849828 7.275424 15.062397 
-9.441185 7.275424 15.309649 
2.569520 7.275424 15.011064 
2.239785 7.275424 15.309649 
-9.421575 7.297258 15.309649 
-9.421575 7.703390 15.084897 
-9.020064 7.703390 15.309649 
2.569520 7.703390 15.040325 
2.247995 7.703390 15.309649 
-8.993321 7.732825 15.309649 
-8.993321 8.131356 15.105289 
-8.587777 8.131356 15.309649 
2.569520 8.131356 15.032318 
2.240691 8.131356 15.309649 
-8.565067 8.153370 15.309649 
-8.565067 8.559322 15.116051 
-8.136814 8.459216 15.309649 
-8.136814 8.559322 15.275560 
-7.848775 8.559322 15.309649 
2.569520 8.559322 15.002322 
2.208668 8.559322 15.309649 
-8.136814 8.987288 15.077172 
-7.708561 8.607081 15.309649 
-7.708561 8.987288 15.181384 
-7.280308 8.709827 15.309649 
-7.280308 8.987288 15.231570 
-6.852054 8.840350 15.309649 
-6.852054 8.987288 15.264606 
-6.423801 8.981277 15.309649 
-6.423801 8.987288 15.307680 
-6.401003 8.987288 15.309649 
-1.284760 8.888225 15.309649 
-1.284760 8.987288 15.234765 
-1.478547 8.987288 15.309649 
-0.856507 8.947178 15.309649 
-0.856507 8.987288 15.271026 
-0.775584 8.987288 15.309649 
2.141267 8.883455 15.309649 
2.141267 8.987288 15.291319 
2.116690 8.987288 15.309649 
2.569520 8.987288 14.941687 
-7.708561 9.415255 14.992802 
-7.280308 9.415255 15.097856 
-6.852054 9.415255 15.142626 
-6.423801 9.415255 15.158920 
-5.995547 9.069308 15.309649 
-5.995547 9.415255 15.162141 
-5.567294 9.105170 15.309649 
-5.567294 9.415255 15.165668 
-5.139040 9.120033 15.309649 
-5.139040 9.415255 15.182556 
-4.710787 9.211928 15.309649 
-4.710787 9.415255 15.252577 
-4.556135 9.415255 15.309649 
-1.284760 9.415255 15.249326 
-1.415814 9.415255 15.309649 
-0.856507 9.415255 15.082010 
-0.428253 9.189280 15.309649 
-0.428253 9.415255 15.109165 
0.000000 9.347830 15.309649 
0.000000 9.415255 15.246410 
0.161075 9.415255 15.309649 
2.141267 9.415255 15.176233 
1.942971 9.415255 15.309649 
-7.280308 9.843221 14.882060 
-6.852054 9.843221 14.971296 
-6.423801 9.843221 15.026209 
-5.995547 9.843221 15.043395 
-5.567294 9.843221 15.058473 
-5.139040 9.843221 15.202497 
-4.710787 9.570793 15.309649 
-4.935724 9.843221 15.309649 
-1.284760 9.585319 15.309649 
-1.153548 9.843221 15.309649 
-0.856507 9.843221 15.067537 
-0.428253 9.843221 14.882285 
0.000000 9.843221 14.923486 
0.428253 9.546559 15.309649 
0.428253 9.843221 15.085694 
0.848902 9.843221 15.309649 
1.713014 9.842659 15.309649 
1.713014 9.843221 15.309452 
1.712219 9.843221 15.309649 
2.141267 9.843221 15.057510 
-6.852054 10.271187 14.893058 
-6.423801 10.271187 15.116876 
-5.995547 10.241117 15.309649 
-6.043160 10.271187 15.309649 
-5.567294 10.089425 15.309649 
-5.139040 9.943944 15.309649 
-0.856507 10.271187 15.071089 
-1.005752 10.271187 15.309649 
0.856507 9.848356 15.309649 
0.856507 10.271187 14.976873 
1.284760 10.003105 15.309649 
1.284760 10.271187 15.122768 
1.713014 10.271187 15.107460 
2.141267 10.271187 14.901230 
-6.852054 10.699153 15.179549 
-6.423801 10.488564 15.309649 
-6.727514 10.699153 15.309649 
-0.856507 10.699153 15.227312 
-0.890207 10.699153 15.309649 
-8.136814 11.126090 15.309649 
-8.145549 11.127119 15.309649 
-8.136814 11.127119 15.295156 
-7.708561 11.082869 15.309649 
-7.280308 10.957682 15.309649 
-6.852054 10.764527 15.309649 
-0.856507 10.772789 15.309649 
-0.660517 11.127119 15.309649 
-9.421575 11.468777 15.309649 
-9.584147 11.555085 15.309649 
-8.993321 11.274404 15.309649 
-8.565067 11.177938 15.309649 
-0.455871 11.555085 15.309649 
-10.278081 11.930850 15.309649 
-10.367600 11.983051 15.309649 
-9.849828 11.697566 15.309649 
-0.428253 11.983051 14.932565 
-0.428253 11.633665 15.309649 
-0.281702 11.983051 15.309649 
-11.134588 12.411017 15.108042 
-10.706335 12.188962 15.309649 
-11.042862 12.411017 15.309649 
-0.059343 12.411017 15.309649 
-11.562841 12.788803 15.309649 
-11.628804 12.838983 15.309649 
-11.134588 12.475374 15.309649 
0.000000 12.838983 15.091298 
0.000000 12.496593 15.309649 
0.259963 12.838983 15.309649 
-11.991095 13.133341 15.309649 
-12.148574 13.266949 15.309649 
0.428253 13.266949 15.216150 
0.428253 13.109474 15.309649 
0.516149 13.266949 15.309649 
-12.419348 13.515611 15.309649 
-12.597875 13.694915 15.309649 
0.428253 13.694915 15.026630 
0.699043 13.694915 15.309649 
-12.847602 13.978888 15.309649 
-12.962782 14.122881 15.309649 
0.804527 14.122881 15.309649 
-13.275855 14.550847 15.296960 
-13.269596 14.550847 15.309649 
0.856507 14.550847 15.306717 
0.856507 14.532852 15.309649 
0.858508 14.550847 15.309649 
-13.704108 14.978813 14.921484 
-13.275855 14.561357 15.309649 
-13.504973 14.978813 15.309649 
0.856507 14.978813 15.283771 
0.872906 14.978813 15.309649 
-13.704108 15.405245 15.309649 
-13.704824 15.406779 15.309649 
0.856507 15.170956 15.309649 
0.834831 15.406779 15.309649 
-14.132361 15.834745 14.925222 
-13.883170 15.834745 15.309649 
0.753748 15.834745 15.309649 
-14.132361 16.262712 15.183715 
-14.046185 16.262712 15.309649 
0.428253 16.262712 15.007797 
0.643550 16.262712 15.309649 
-14.132361 16.573872 15.309649 
-14.164003 16.690678 15.309649 
0.428253 16.690678 15.247414 
0.476172 16.690678 15.309649 
-14.560616 17.118645 14.885234 
-14.250131 17.118645 15.309649 
0.000000 17.118645 14.960742 
0.428253 16.785448 15.309649 
0.259148 17.118645 15.309649 
-14.560616 17.546610 14.993666 
-14.319003 17.546610 15.309649 
0.000000 17.546610 15.157788 
0.126823 17.546610 15.309649 
-14.560616 17.974577 15.056748 
-14.357100 17.974577 15.309649 
0.000000 17.974577 15.156503 
0.133829 17.974577 15.309649 
-14.560616 18.402542 15.085702 
-14.370131 18.402542 15.309649 
0.000000 18.402542 15.107260 
0.203060 18.402542 15.309649 
-14.560616 18.830509 15.106590 
-14.376878 18.830509 15.309649 
0.000000 18.830509 15.012773 
0.316134 18.830509 15.309649 
-14.560616 19.258474 15.123041 
-14.377796 19.258474 15.309649 
0.428253 19.258474 15.278786 
0.428253 19.168314 15.309649 
0.453926 19.258474 15.309649 
-14.560616 19.686441 15.113780 
-14.348603 19.686441 15.309649 
0.428253 19.686441 15.147592 
0.545840 19.686441 15.309649 
-14.560616 20.114407 15.051391 
-14.259549 20.114407 15.309649 
0.428253 20.114407 15.085020 
0.565686 20.114407 15.309649 
-14.560616 20.542374 14.947619 
-14.132518 20.542374 15.309649 
0.428253 20.542374 15.114507 
0.527339 20.542374 15.309649 
-14.132361 20.542843 15.309649 
-14.132361 20.970339 15.189287 
-13.991202 20.970339 15.309649 
0.428253 20.970339 15.230282 
0.462633 20.970339 15.309649 
-14.132361 21.398306 15.050951 
-13.835080 21.398306 15.309649 
0.428253 21.272070 15.309649 
0.414152 21.398306 15.309649 
-14.132361 21.826271 14.893709 
-13.704108 21.701021 15.309649 
-13.704108 21.826271 15.261552 
-13.649606 21.826271 15.309649 
0.390816 21.826271 15.309649 
-13.704108 22.254238 15.087667 
-13.448451 22.254238 15.309649 
0.428253 22.254238 15.112595 
0.428253 22.046165 15.309649 
0.470702 22.254238 15.309649 
5.567294 22.254238 14.891220 
-13.704108 22.682203 14.896519 
-13.275855 22.567928 15.309649 
-13.275855 22.682203 15.254653 
-13.208014 22.682203 15.309649 
-7.708561 22.660574 15.309649 
-7.708561 22.682203 15.293435 
-7.726355 22.682203 15.309649 
-7.280308 22.295536 15.309649 
-7.280308 22.682203 15.035160 
-6.852054 22.570789 15.309649 
-6.852054 22.682203 15.230875 
-6.798392 22.682203 15.309649 
0.856507 22.619722 15.309649 
1.202652 22.682203 15.309649 
1.713014 22.675322 15.309649 
1.562507 22.682203 15.309649 
1.713014 22.682203 15.077779 
2.141267 22.638971 15.309649 
2.569520 22.596754 15.309649 
2.997774 22.591536 15.309649 
3.426027 22.609451 15.309649 
3.854280 22.636826 15.309649 
4.042213 22.682203 15.309649 
4.282534 22.682203 15.114657 
-13.275855 23.110170 15.033176 
-12.910069 23.110170 15.309649 
-7.708561 23.110170 15.031157 
-8.023605 23.110170 15.309649 
-6.852054 23.110170 14.948130 
-6.675907 23.110170 15.309649 
1.284760 22.694365 15.309649 
4.282534 22.734474 15.309649 
4.710787 22.941023 15.309649 
4.967439 23.110170 15.309649 
5.139040 23.110170 15.118587 
-12.847602 23.185577 15.309649 
-12.847602 23.538136 15.085990 
-12.528503 23.538136 15.309649 
-8.136814 23.250011 15.309649 
-8.136814 23.538136 15.104449 
-8.520878 23.538136 15.309649 
-6.663919 23.538136 15.309649 
5.139040 23.222801 15.309649 
5.526332 23.538136 15.309649 
5.567294 23.538136 15.228956 
-12.419348 23.639408 15.309649 
-12.419348 23.966103 15.056870 
-12.022390 23.966103 15.309649 
-8.993321 23.810537 15.309649 
-8.993321 23.966103 15.179561 
-9.277507 23.966103 15.309649 
-8.565067 23.565496 15.309649 
-8.565067 23.966103 14.984227 
-6.777557 23.966103 15.309649 
5.567294 23.567631 15.309649 
5.995547 23.774532 15.309649 
6.423801 23.816244 15.309649 
6.852054 23.966103 15.287251 
6.852054 23.951632 15.309649 
6.876990 23.966103 15.309649 
-11.991095 23.988880 15.309649 
-11.991095 24.394068 14.946386 
-11.562841 24.230015 15.309649 
-11.562841 24.394068 15.159877 
-11.134588 24.381592 15.309649 
-11.134588 24.394068 15.298799 
-10.990404 24.394068 15.309649 
-10.278081 24.357517 15.309649 
-10.278081 24.394068 15.279467 
-10.533829 24.394068 15.309649 
-9.849828 24.222757 15.309649 
-9.849828 24.394068 15.164948 
-9.421575 24.043163 15.309649 
-9.421575 24.394068 15.015154 
-6.852054 24.344978 15.309649 
-6.860247 24.394068 15.309649 
7.280308 24.394068 15.253352 
7.280308 24.306625 15.309649 
7.326556 24.394068 15.309649 
-11.134588 24.822035 14.895271 
-10.706335 24.417208 15.309649 
-10.706335 24.822035 14.957828 
-10.278081 24.822035 14.924519 
-6.908628 24.822035 15.309649 
7.280308 24.822035 14.886394 
7.450134 24.822035 15.309649 
-6.926267 25.250000 15.309649 
7.628061 25.250000 15.309649 
-6.900616 25.677965 15.309649 
7.708561 25.338041 15.309649 
8.136814 25.639364 15.309649 
8.225225 25.677965 15.309649 
8.565067 25.677965 15.003310 
11.562841 25.677965 14.966327 
11.991095 25.677965 15.053502 
12.419348 25.677965 14.914707 
-6.878161 26.105932 15.309649 
8.565067 25.820377 15.309649 
8.993321 25.931614 15.309649 
9.421575 26.034206 15.309649 
9.703530 26.105932 15.309649 
9.849828 26.105932 15.218463 
10.278081 26.105932 15.008499 
10.706335 26.105932 14.911793 
11.134588 26.105932 15.064721 
11.562841 26.105932 15.253498 
11.991095 25.934835 15.309649 
11.687769 26.105932 15.309649 
12.419348 25.875120 15.309649 
12.847602 25.979525 15.309649 
13.275855 26.054020 15.309649 
13.704108 26.070301 15.309649 
14.132361 26.090765 15.309649 
14.163388 26.105932 15.309649 
14.560616 26.105932 15.082863 
14.988869 26.105932 14.880259 
-6.869873 26.533897 15.309649 
9.849828 26.144587 15.309649 
10.278081 26.262947 15.309649 
10.706335 26.364159 15.309649 
11.134588 26.353851 15.309649 
11.562841 26.184671 15.309649 
14.560616 26.445154 15.309649 
14.662459 26.533897 15.309649 
14.988869 26.533897 15.157845 
15.417122 26.533897 15.057321 
-6.887496 26.961864 15.309649 
14.988869 26.937838 15.309649 
15.417122 26.861736 15.309649 
15.747213 26.961864 15.309649 
15.845375 26.961864 15.253269 
-6.852054 27.389830 15.048517 
-6.852054 27.184050 15.309649 
-6.814749 27.389830 15.309649 
14.988869 27.090631 15.309649 
14.988869 27.389830 15.292627 
14.940476 27.389830 15.309649 
15.043010 27.389830 15.309649 
15.845375 26.987539 15.309649 
16.165686 27.389830 15.309649 
-6.608070 27.817797 15.309649 
14.560616 27.701866 15.309649 
14.560616 27.817797 15.225792 
14.477943 27.817797 15.309649 
14.988869 27.817797 15.282303 
15.023689 27.817797 15.309649 
16.273628 27.534868 15.309649 
16.442764 27.817797 15.309649 
-6.423801 28.245762 15.178371 
-6.423801 28.114094 15.309649 
-6.347106 28.245762 15.309649 
14.132361 28.167885 15.309649 
14.132361 28.245762 15.191275 
14.084075 28.245762 15.309649 
14.560616 28.245762 14.928355 
14.988869 28.245762 15.223091 
15.057361 28.245762 15.309649 
16.701881 28.245762 15.141891 
16.681322 28.245762 15.309649 
-10.278081 28.673729 15.071698 
-9.849828 28.673729 15.252697 
-9.421575 28.647028 15.309649 
-9.620446 28.673729 15.309649 
-8.993321 28.621367 15.309649 
-8.565067 28.605574 15.309649 
-8.136814 28.583509 15.309649 
-7.708561 28.643520 15.309649 
-7.464654 28.673729 15.309649 
-7.280308 28.673729 15.257682 
-6.852054 28.673729 15.291197 
-6.423801 28.404257 15.309649 
-6.823398 28.673729 15.309649 
14.132361 28.673729 15.244218 
14.086107 28.673729 15.309649 
14.560616 28.673729 14.987587 
14.988869 28.673729 15.150629 
15.117620 28.673729 15.309649 
16.701881 28.281708 15.309649 
16.913025 28.673729 15.309649 
-11.562841 29.101694 14.959986 
-11.134588 29.101694 15.264383 
-10.706335 28.959570 15.309649 
-11.064829 29.101694 15.309649 
-10.278081 28.811790 15.309649 
-9.849828 28.706841 15.309649 
-7.280308 28.695980 15.309649 
-6.852054 28.681540 15.309649 
14.132361 28.774137 15.309649 
14.374366 29.101694 15.309649 
14.560616 29.101694 15.184335 
14.988869 29.101694 15.160633 
15.196045 29.101694 15.309649 
17.130135 29.101694 14.972934 
17.070282 29.101694 15.309649 
-11.991095 29.529661 15.054073 
-11.562841 29.359640 15.309649 
-11.755681 29.529661 15.309649 
-11.134588 29.130434 15.309649 
14.560616 29.328043 15.309649 
14.767797 29.529661 15.309649 
14.988869 29.529661 15.202543 
15.417122 29.458725 15.309649 
15.417122 29.529661 15.277184 
15.468369 29.529661 15.309649 
17.130135 29.369261 15.309649 
17.168493 29.529661 15.309649 
-11.991095 29.900663 15.309649 
-12.020180 29.957626 15.309649 
14.988869 29.957626 15.309487 
14.988653 29.957626 15.309649 
15.417122 29.957626 15.137810 
15.845375 29.886141 15.309649 
15.845375 29.957626 15.257899 
15.950298 29.957626 15.309649 
17.212736 29.957626 15.309649 
-12.419348 30.385593 15.020445 
-12.118401 30.385593 15.309649 
14.988869 29.958141 15.309649 
15.155643 30.385593 15.309649 
15.417122 30.385593 15.085794 
15.845375 30.385593 14.986001 
16.273628 30.222111 15.309649 
16.273628 30.385593 15.188983 
16.530664 30.385593 15.309649 
17.130135 30.213264 15.309649 
